ply
format ascii 1.0
element vertex 1112
property float x
property float y
property float z
property uchar red
property uchar green
property uchar blue
end_header
-1.437500 -11.000000 -32.000000 175 159 146
-1.375000 -11.000000 -32.000000 175 159 146
-1.312500 -11.000000 -32.000000 175 159 144
-1.250000 -11.000000 -32.000000 175 159 144
-1.187500 -11.000000 -32.000000 174 158 141
-1.125000 -11.000000 -32.000000 174 158 141
-1.062500 -11.000000 -32.000000 173 158 139
-1.000000 -11.000000 -32.000000 173 158 139
-0.937500 -11.000000 -32.000000 173 158 137
-0.875000 -11.000000 -32.000000 173 158 137
-0.812500 -11.000000 -32.000000 173 158 137
-0.750000 -11.000000 -32.000000 172 157 136
-0.687500 -11.000000 -32.000000 172 157 136
-0.625000 -11.000000 -32.000000 172 157 138
-0.562500 -11.000000 -32.000000 172 157 138
-0.500000 -11.000000 -32.000000 172 157 138
-0.437500 -11.000000 -32.000000 172 157 138
-0.375000 -11.000000 -32.000000 173 156 139
-0.312500 -11.000000 -32.000000 172 155 138
-0.250000 -11.000000 -32.000000 172 155 138
-0.187500 -11.000000 -32.000000 171 154 137
-0.125000 -11.000000 -32.000000 171 154 137
-0.062500 -11.000000 -32.000000 170 153 135
0.000000 -11.000000 -32.000000 170 153 135
0.062500 -11.000000 -32.000000 170 153 135
0.125000 -11.000000 -32.000000 170 153 135
0.187500 -11.000000 -32.000000 169 152 132
0.587473 -6.082073 -17.693304 173 152 131
0.616702 -6.029979 -17.541756 172 151 130
0.655172 -6.068965 -17.655172 172 151 130
0.685225 -6.029979 -17.541756 170 149 128
0.719486 -6.029979 -17.541756 170 149 128
0.733333 -5.866667 -17.066668 167 149 127
4.500000 -11.000000 -32.000000 186 193 209
4.562500 -11.000000 -32.000000 186 193 211
4.625000 -11.000000 -32.000000 186 195 212
4.687500 -11.000000 -32.000000 186 195 212
4.750000 -11.000000 -32.000000 188 197 212
4.812500 -11.000000 -32.000000 188 197 212
4.875000 -11.000000 -32.000000 187 199 213
4.937500 -11.000000 -32.000000 186 198 214
4.812030 -10.586466 -30.796993 185 198 214
5.062500 -11.000000 -32.000000 184 200 215
5.125000 -11.000000 -32.000000 184 202 216
5.187500 -11.000000 -32.000000 185 202 219
5.250000 -11.000000 -32.000000 185 202 219
5.312500 -11.000000 -32.000000 185 202 220
2.994653 -5.019608 -14.602495 192 208 225
3.012433 -5.001776 -14.550622 193 209 226
3.057143 -5.028572 -14.628572 193 208 227
3.085714 -5.028572 -14.628572 192 208 225
3.114286 -5.028572 -14.628572 192 208 225
3.142857 -5.028572 -14.628572 192 208 225
3.171429 -5.028572 -14.628572 192 208 225
3.182949 -5.001776 -14.550622 192 208 225
3.228571 -5.028572 -14.628572 192 208 225
3.257143 -5.028572 -14.628572 191 207 224
3.285714 -5.028572 -14.628572 191 207 224
7.375000 -11.000000 -32.000000 191 207 224
7.437500 -11.000000 -32.000000 191 207 224
4.494759 -5.903564 -17.174004 192 207 226
4.399185 -5.735234 -16.684319 192 207 226
4.387097 -5.677419 -16.516129 192 207 226
4.419355 -5.677419 -16.516129 193 208 227
4.496945 -5.735234 -16.684319 193 208 227
4.585567 -5.806186 -16.890722 193 208 227
4.618556 -5.806186 -16.890722 194 211 229
4.613497 -5.758691 -16.752556 193 210 228
4.599190 -5.700405 -16.582996 193 210 228
4.594378 -5.654618 -16.449799 193 210 228
4.608000 -5.632000 -16.384001 194 211 229
4.630739 -5.620759 -16.351297 194 211 229
4.672000 -5.632000 -16.384001 194 211 229
4.704000 -5.632000 -16.384001 194 211 229
4.736000 -5.632000 -16.384001 192 211 228
4.787148 -5.654618 -16.449799 192 211 228
11.125000 -11.000000 -32.000000 191 210 226
11.187500 -11.000000 -32.000000 191 210 226
11.250000 -11.000000 -32.000000 191 210 226
11.312500 -11.000000 -32.000000 191 210 227
11.375000 -11.000000 -32.000000 192 211 228
11.437500 -11.000000 -32.000000 192 211 228
11.500000 -11.000000 -32.000000 193 212 229
12.062500 -11.000000 -32.000000 195 214 230
12.125000 -11.000000 -32.000000 194 213 229
2.624290 -1.598184 -4.649262 184 211 230
2.612613 -1.585586 -4.612613 185 212 231
2.621622 -1.585586 -4.612613 185 214 232
2.630631 -1.585586 -4.612613 185 214 232
2.639640 -1.585586 -4.612613 185 214 232
2.648649 -1.585586 -4.612613 186 215 233
2.657658 -1.585586 -4.612613 184 216 231
2.666667 -1.585586 -4.612613 184 216 231
2.675676 -1.585586 -4.612613 185 217 232
2.684685 -1.585586 -4.612613 185 216 234
2.693694 -1.585586 -4.612613 186 217 235
2.702703 -1.585586 -4.612613 186 217 235
2.711712 -1.585586 -4.612613 187 218 236
2.720721 -1.585586 -4.612613 188 219 237
2.729730 -1.585586 -4.612613 189 220 238
2.738739 -1.585586 -4.612613 191 222 240
2.747748 -1.585586 -4.612613 193 224 242
2.756757 -1.585586 -4.612613 193 224 242
2.828829 -1.585586 -4.612613 196 227 247
2.837838 -1.585586 -4.612613 194 225 245
2.846847 -1.585586 -4.612613 192 223 243
2.855856 -1.585586 -4.612613 191 222 242
2.864865 -1.585586 -4.612613 189 220 240
2.873874 -1.585586 -4.612613 188 219 239
-9.788236 -8.329412 -24.094118 169 152 122
-9.572254 -8.184971 -23.676300 169 152 122
-9.471265 -8.137931 -23.540230 171 154 124
-9.371428 -8.091429 -23.405714 170 155 124
-9.516035 -8.256559 -23.883383 170 155 124
-9.637982 -8.403561 -24.308605 167 152 119
-9.619047 -8.428572 -24.380953 167 152 121
-9.268011 -8.161384 -23.608068 168 153 122
-9.142858 -8.091429 -23.405714 168 153 122
-2.187500 -11.062500 -32.000000 175 159 142
-2.125000 -11.062500 -32.000000 175 159 142
-2.062500 -11.062500 -32.000000 175 159 142
-2.000000 -11.062500 -32.000000 175 159 142
-1.937500 -11.062500 -32.000000 175 160 141
-1.875000 -11.062500 -32.000000 174 158 141
-1.812500 -11.062500 -32.000000 176 160 143
-1.750000 -11.062500 -32.000000 177 161 144
-1.687500 -11.062500 -32.000000 177 161 144
-1.625000 -11.062500 -32.000000 176 160 145
-1.562500 -11.062500 -32.000000 175 159 144
-1.500000 -11.062500 -32.000000 174 158 145
-1.437500 -11.062500 -32.000000 174 158 145
-1.375000 -11.062500 -32.000000 175 159 146
-1.312500 -11.062500 -32.000000 175 159 144
-1.250000 -11.062500 -32.000000 174 158 143
-1.187500 -11.062500 -32.000000 174 158 141
-1.125000 -11.062500 -32.000000 173 157 140
-1.062500 -11.062500 -32.000000 173 158 139
-1.000000 -11.062500 -32.000000 173 158 139
-0.937500 -11.062500 -32.000000 173 158 137
-0.875000 -11.062500 -32.000000 173 158 137
-0.812500 -11.062500 -32.000000 173 158 137
-0.750000 -11.062500 -32.000000 172 157 136
-0.687500 -11.062500 -32.000000 172 157 136
-0.625000 -11.062500 -32.000000 171 156 137
-0.562500 -11.062500 -32.000000 171 156 137
-0.500000 -11.062500 -32.000000 172 157 138
-0.437500 -11.062500 -32.000000 172 157 138
-0.375000 -11.062500 -32.000000 174 157 140
-0.312500 -11.062500 -32.000000 173 156 139
-0.250000 -11.062500 -32.000000 172 155 138
-0.187500 -11.062500 -32.000000 172 155 138
-0.125000 -11.062500 -32.000000 171 154 137
-0.062500 -11.062500 -32.000000 171 154 136
0.000000 -11.062500 -32.000000 171 154 136
0.062500 -11.062500 -32.000000 171 154 136
0.125000 -11.062500 -32.000000 171 154 136
0.187500 -11.062500 -32.000000 170 153 133
0.561404 -6.210526 -17.964912 171 155 132
0.581197 -6.051282 -17.504274 170 154 131
0.612766 -6.025532 -17.429787 169 153 128
0.646809 -6.025532 -17.429787 169 153 128
0.672269 -5.949580 -17.210085 168 152 127
0.700000 -5.900000 -17.066668 167 151 126
0.733333 -5.900000 -17.066668 166 150 125
4.437500 -11.062500 -32.000000 185 191 207
4.500000 -11.062500 -32.000000 186 193 209
4.562500 -11.062500 -32.000000 185 195 207
4.625000 -11.062500 -32.000000 186 196 208
4.687500 -11.062500 -32.000000 186 195 210
4.750000 -11.062500 -32.000000 188 197 212
4.812500 -11.062500 -32.000000 188 197 212
4.875000 -11.062500 -32.000000 187 199 213
4.937500 -11.062500 -32.000000 187 199 215
5.000000 -11.062500 -32.000000 185 198 214
5.062500 -11.062500 -32.000000 185 198 214
5.125000 -11.062500 -32.000000 184 200 215
5.187500 -11.062500 -32.000000 186 202 219
5.250000 -11.062500 -32.000000 185 201 218
5.312500 -11.062500 -32.000000 185 201 218
5.375000 -11.062500 -32.000000 185 202 219
3.466667 -5.900000 -17.066668 191 207 224
3.373494 -5.686747 -16.449799 192 208 225
3.028571 -5.057143 -14.628572 192 208 225
3.057143 -5.057143 -14.628572 193 209 226
3.091234 -5.066190 -14.654740 192 208 225
3.119857 -5.066190 -14.654740 192 208 225
3.148479 -5.066190 -14.654740 192 208 225
3.177102 -5.066190 -14.654740 192 208 225
3.200000 -5.057143 -14.628572 191 207 224
3.228571 -5.057143 -14.628572 191 207 224
3.257143 -5.057143 -14.628572 191 207 224
7.375000 -11.062500 -32.000000 190 206 223
7.437500 -11.062500 -32.000000 190 206 223
7.687500 -11.062500 -32.000000 189 204 223
4.494759 -5.937107 -17.174004 192 207 226
4.408163 -5.779592 -16.718367 192 207 226
4.404858 -5.732793 -16.582996 192 207 226
4.437247 -5.732793 -16.582996 192 207 226
4.580913 -5.875519 -16.995852 193 208 227
4.604555 -5.863354 -16.960663 193 208 227
4.618556 -5.839175 -16.890722 193 210 228
4.632443 -5.815195 -16.821356 193 210 228
4.599190 -5.732793 -16.582996 193 210 228
4.594378 -5.686747 -16.449799 193 210 228
4.608000 -5.664000 -16.384001 193 210 228
4.630739 -5.652695 -16.351297 194 211 229
4.662674 -5.652695 -16.351297 194 211 229
4.694611 -5.652695 -16.351297 194 211 229
4.726547 -5.652695 -16.351297 193 210 228
4.758483 -5.652695 -16.351297 193 210 228
10.875000 -11.062500 -32.000000 191 210 227
10.937500 -11.062500 -32.000000 191 210 227
11.000000 -11.062500 -32.000000 191 210 227
11.062500 -11.062500 -32.000000 191 210 227
11.125000 -11.062500 -32.000000 191 210 226
11.187500 -11.062500 -32.000000 191 210 226
11.250000 -11.062500 -32.000000 191 210 226
11.312500 -11.062500 -32.000000 191 210 227
11.375000 -11.062500 -32.000000 192 211 228
11.437500 -11.062500 -32.000000 192 211 228
11.500000 -11.062500 -32.000000 193 212 229
12.062500 -11.062500 -32.000000 194 213 229
12.125000 -11.062500 -32.000000 193 212 228
2.624290 -1.607265 -4.649262 184 211 230
2.612613 -1.594595 -4.612613 185 212 231
2.621622 -1.594595 -4.612613 184 213 231
2.630631 -1.594595 -4.612613 185 214 232
2.639640 -1.594595 -4.612613 185 214 232
2.648649 -1.594595 -4.612613 185 214 232
2.657658 -1.594595 -4.612613 184 216 231
2.666667 -1.594595 -4.612613 184 216 231
2.675676 -1.594595 -4.612613 184 216 231
2.684685 -1.594595 -4.612613 185 216 234
2.693694 -1.594595 -4.612613 189 216 235
2.702703 -1.594595 -4.612613 189 216 235
2.711712 -1.594595 -4.612613 189 216 235
2.720721 -1.594595 -4.612613 190 217 236
2.729730 -1.594595 -4.612613 191 220 238
2.738739 -1.594595 -4.612613 192 221 239
2.747748 -1.594595 -4.612613 192 223 241
2.756757 -1.594595 -4.612613 193 224 242
2.828829 -1.594595 -4.612613 194 227 244
2.837838 -1.594595 -4.612613 194 225 243
2.846847 -1.594595 -4.612613 193 224 242
2.855856 -1.594595 -4.612613 192 223 241
2.864865 -1.594595 -4.612613 190 221 239
2.873874 -1.594595 -4.612613 187 219 234
-9.788236 -8.376471 -24.094118 170 153 123
-9.572254 -8.231214 -23.676300 170 153 123
-9.609329 -8.303207 -23.883383 171 154 124
-9.562682 -8.303207 -23.883383 170 155 124
-9.801802 -8.552552 -24.600601 169 154 123
-9.666667 -8.476191 -24.380953 168 153 120
-9.705706 -8.552552 -24.600601 168 153 122
-9.571428 -8.476191 -24.380953 169 154 123
-2.187500 -11.125000 -32.000000 175 159 142
-2.125000 -11.125000 -32.000000 175 159 142
-2.062500 -11.125000 -32.000000 175 159 142
-2.000000 -11.125000 -32.000000 175 159 142
-1.937500 -11.125000 -32.000000 175 160 141
-1.875000 -11.125000 -32.000000 174 158 141
-1.812500 -11.125000 -32.000000 176 160 143
-1.750000 -11.125000 -32.000000 176 160 143
-1.687500 -11.125000 -32.000000 176 160 143
-1.625000 -11.125000 -32.000000 176 160 145
-1.562500 -11.125000 -32.000000 174 158 143
-1.500000 -11.125000 -32.000000 174 158 145
-1.437500 -11.125000 -32.000000 175 159 144
-1.375000 -11.125000 -32.000000 175 159 146
-1.312500 -11.125000 -32.000000 176 160 147
-1.250000 -11.125000 -32.000000 175 159 146
-1.187500 -11.125000 -32.000000 175 159 146
-1.125000 -11.125000 -32.000000 175 159 146
-1.062500 -11.125000 -32.000000 174 158 143
-1.000000 -11.125000 -32.000000 174 158 143
-0.937500 -11.125000 -32.000000 174 158 141
-0.875000 -11.125000 -32.000000 173 157 140
-0.812500 -11.125000 -32.000000 174 158 141
-0.750000 -11.125000 -32.000000 174 158 141
-0.687500 -11.125000 -32.000000 173 158 139
-0.625000 -11.125000 -32.000000 172 157 138
-0.562500 -11.125000 -32.000000 172 157 136
-0.500000 -11.125000 -32.000000 173 158 137
-0.437500 -11.125000 -32.000000 173 158 137
-0.375000 -11.125000 -32.000000 173 157 140
-0.312500 -11.125000 -32.000000 172 156 141
-0.250000 -11.125000 -32.000000 172 156 141
-0.187500 -11.125000 -32.000000 171 155 138
-0.125000 -11.125000 -32.000000 171 155 138
-0.062500 -11.125000 -32.000000 170 155 136
0.000000 -11.125000 -32.000000 169 154 133
0.062500 -11.125000 -32.000000 168 153 130
0.125000 -11.125000 -32.000000 168 153 130
0.493392 -6.273128 -18.044052 171 155 132
0.527473 -6.259341 -18.004396 171 155 132
0.561404 -6.245614 -17.964912 170 154 131
0.582441 -6.098501 -17.541756 170 154 131
0.612766 -6.059575 -17.429787 169 153 128
0.641350 -6.008439 -17.282700 169 153 128
0.672269 -5.983193 -17.210085 167 151 126
4.375000 -11.125000 -32.000000 183 189 201
4.437500 -11.125000 -32.000000 184 192 205
4.500000 -11.125000 -32.000000 184 194 206
4.562500 -11.125000 -32.000000 185 195 207
4.625000 -11.125000 -32.000000 186 196 208
4.687500 -11.125000 -32.000000 186 195 210
4.750000 -11.125000 -32.000000 188 197 212
4.812500 -11.125000 -32.000000 188 197 212
4.875000 -11.125000 -32.000000 187 199 213
4.937500 -11.125000 -32.000000 187 199 215
5.000000 -11.125000 -32.000000 185 198 214
5.062500 -11.125000 -32.000000 185 198 214
5.125000 -11.125000 -32.000000 184 200 215
5.187500 -11.125000 -32.000000 185 201 218
5.250000 -11.125000 -32.000000 184 200 217
5.312500 -11.125000 -32.000000 185 201 218
5.375000 -11.125000 -32.000000 184 201 218
5.437500 -11.125000 -32.000000 185 200 219
3.476793 -6.008439 -17.282700 191 207 224
3.389002 -5.800407 -16.684319 191 207 224
3.407708 -5.776876 -16.616632 192 208 225
3.405622 -5.718875 -16.449799 192 208 225
7.687500 -11.125000 -32.000000 188 203 222
7.750000 -11.125000 -32.000000 190 205 224
7.812500 -11.125000 -32.000000 190 205 224
8.187500 -11.125000 -32.000000 191 206 225
8.312500 -11.125000 -32.000000 191 206 225
4.513684 -5.995790 -17.246315 192 207 226
4.481328 -5.908714 -16.995852 192 207 226
4.440816 -5.812245 -16.718367 192 207 226
4.473469 -5.812245 -16.718367 192 207 226
4.580913 -5.908714 -16.995852 193 208 227
4.614108 -5.908714 -16.995852 193 208 227
4.618556 -5.872165 -16.890722 193 208 227
4.622951 -5.836066 -16.786884 193 208 227
4.589899 -5.753535 -16.549496 193 208 227
4.603622 -5.730382 -16.482897 193 208 227
4.617235 -5.707415 -16.416834 193 208 227
4.649299 -5.707415 -16.416834 194 209 228
4.681363 -5.707415 -16.416834 193 210 228
4.694611 -5.684631 -16.351297 194 211 229
4.726547 -5.684631 -16.351297 193 210 228
4.758483 -5.684631 -16.351297 193 210 228
4.809619 -5.707415 -16.416834 193 210 228
10.812500 -11.125000 -32.000000 190 208 228
10.875000 -11.125000 -32.000000 190 209 226
10.937500 -11.125000 -32.000000 190 209 226
11.000000 -11.125000 -32.000000 190 209 226
11.062500 -11.125000 -32.000000 190 209 226
11.125000 -11.125000 -32.000000 190 209 225
11.187500 -11.125000 -32.000000 191 210 226
11.250000 -11.125000 -32.000000 191 210 226
11.312500 -11.125000 -32.000000 191 210 227
11.375000 -11.125000 -32.000000 191 210 227
11.437500 -11.125000 -32.000000 192 211 228
11.500000 -11.125000 -32.000000 193 212 229
11.562500 -11.125000 -32.000000 193 211 231
12.062500 -11.125000 -32.000000 193 212 228
12.125000 -11.125000 -32.000000 193 212 228
2.625781 -1.617263 -4.651902 185 211 228
2.612613 -1.603604 -4.612613 185 211 228
2.621622 -1.603604 -4.612613 184 211 228
2.630631 -1.603604 -4.612613 184 211 228
2.639640 -1.603604 -4.612613 184 211 228
2.648649 -1.603604 -4.612613 185 212 229
2.657658 -1.603604 -4.612613 185 214 230
2.666667 -1.603604 -4.612613 185 214 230
2.675676 -1.603604 -4.612613 186 215 231
2.684685 -1.603604 -4.612613 188 215 234
2.693694 -1.603604 -4.612613 189 216 235
2.702703 -1.603604 -4.612613 189 216 235
2.711712 -1.603604 -4.612613 189 216 235
2.720721 -1.603604 -4.612613 190 217 236
2.729730 -1.603604 -4.612613 190 219 237
2.738739 -1.603604 -4.612613 192 221 239
2.747748 -1.603604 -4.612613 191 222 240
2.828829 -1.603604 -4.612613 194 227 244
2.837838 -1.603604 -4.612613 193 224 242
2.846847 -1.603604 -4.612613 192 223 241
2.855856 -1.603604 -4.612613 191 222 240
2.864865 -1.603604 -4.612613 190 221 239
2.873874 -1.603604 -4.612613 187 220 235
-9.741177 -8.423530 -24.094118 173 154 124
-2.187500 -11.187500 -32.000000 174 158 143
-2.125000 -11.187500 -32.000000 175 159 144
-2.062500 -11.187500 -32.000000 175 159 144
-2.000000 -11.187500 -32.000000 175 159 144
-1.937500 -11.187500 -32.000000 175 159 144
-1.875000 -11.187500 -32.000000 175 159 144
-1.812500 -11.187500 -32.000000 175 159 144
-1.750000 -11.187500 -32.000000 175 159 144
-1.687500 -11.187500 -32.000000 175 159 144
-1.625000 -11.187500 -32.000000 175 159 144
-1.562500 -11.187500 -32.000000 175 159 144
-1.500000 -11.187500 -32.000000 175 159 144
-1.437500 -11.187500 -32.000000 175 159 144
-1.375000 -11.187500 -32.000000 175 159 146
-1.312500 -11.187500 -32.000000 175 159 146
-1.250000 -11.187500 -32.000000 175 159 146
-1.187500 -11.187500 -32.000000 175 159 146
-1.125000 -11.187500 -32.000000 174 158 145
-1.062500 -11.187500 -32.000000 174 158 143
-1.000000 -11.187500 -32.000000 174 158 143
-0.937500 -11.187500 -32.000000 173 157 140
-0.875000 -11.187500 -32.000000 173 157 140
-0.812500 -11.187500 -32.000000 174 158 141
-0.750000 -11.187500 -32.000000 174 158 141
-0.687500 -11.187500 -32.000000 174 159 140
-0.625000 -11.187500 -32.000000 174 159 140
-0.562500 -11.187500 -32.000000 174 159 138
-0.500000 -11.187500 -32.000000 174 159 138
-0.437500 -11.187500 -32.000000 173 158 137
-0.375000 -11.187500 -32.000000 173 157 140
-0.312500 -11.187500 -32.000000 172 156 141
-0.250000 -11.187500 -32.000000 171 155 140
-0.187500 -11.187500 -32.000000 171 155 138
-0.125000 -11.187500 -32.000000 170 154 137
-0.062500 -11.187500 -32.000000 169 154 135
0.000000 -11.187500 -32.000000 169 154 133
0.062500 -11.187500 -32.000000 169 154 131
0.125000 -11.187500 -32.000000 169 154 131
0.493392 -6.308370 -18.044052 171 155 132
0.527473 -6.294506 -18.004396 171 155 132
0.561404 -6.280702 -17.964912 170 154 131
0.584946 -6.159140 -17.617205 170 154 131
0.616702 -6.132762 -17.541756 169 153 130
0.641350 -6.042194 -17.282700 168 152 129
0.672269 -6.016807 -17.210085 166 150 127
4.375000 -11.187500 -32.000000 183 189 201
4.437500 -11.187500 -32.000000 183 191 204
4.500000 -11.187500 -32.000000 184 194 206
4.562500 -11.187500 -32.000000 185 195 207
4.625000 -11.187500 -32.000000 186 196 208
4.687500 -11.187500 -32.000000 186 196 208
4.750000 -11.187500 -32.000000 185 197 211
4.812500 -11.187500 -32.000000 186 198 212
4.875000 -11.187500 -32.000000 187 199 213
4.937500 -11.187500 -32.000000 187 199 215
5.000000 -11.187500 -32.000000 186 198 214
5.062500 -11.187500 -32.000000 186 198 214
5.125000 -11.187500 -32.000000 187 199 215
5.187500 -11.187500 -32.000000 187 199 215
5.250000 -11.187500 -32.000000 186 199 215
5.312500 -11.187500 -32.000000 186 199 215
5.375000 -11.187500 -32.000000 185 201 216
5.437500 -11.187500 -32.000000 185 201 216
5.500000 -11.187500 -32.000000 186 202 217
3.479744 -6.106610 -17.466951 190 206 223
3.476793 -6.042194 -17.282700 191 207 224
3.466667 -5.966667 -17.066668 191 207 224
7.687500 -11.187500 -32.000000 188 203 222
7.750000 -11.187500 -32.000000 189 204 223
7.812500 -11.187500 -32.000000 190 205 224
8.062500 -11.187500 -32.000000 191 206 225
8.125000 -11.187500 -32.000000 191 206 225
8.187500 -11.187500 -32.000000 190 205 224
8.250000 -11.187500 -32.000000 191 206 225
8.312500 -11.187500 -32.000000 191 206 225
4.523207 -6.042194 -17.282700 191 206 225
4.500000 -5.966667 -17.066668 192 207 226
4.523909 -5.954262 -17.031185 192 207 226
4.647303 -5.941909 -16.995852 193 208 227
4.622951 -5.868853 -16.786884 193 208 227
4.617886 -5.821138 -16.650406 193 208 227
4.622222 -5.785859 -16.549496 193 208 227
4.635815 -5.762576 -16.482897 193 208 227
4.761134 -5.797571 -16.582996 193 210 228
4.755020 -5.751004 -16.449799 193 210 228
4.777555 -5.739479 -16.416834 193 210 228
4.819277 -5.751004 -16.449799 193 210 228
10.750000 -11.187500 -32.000000 190 207 227
10.812500 -11.187500 -32.000000 190 207 227
10.875000 -11.187500 -32.000000 190 207 225
10.937500 -11.187500 -32.000000 190 207 225
11.000000 -11.187500 -32.000000 191 208 226
11.062500 -11.187500 -32.000000 191 208 226
11.125000 -11.187500 -32.000000 191 208 225
11.187500 -11.187500 -32.000000 192 209 226
11.250000 -11.187500 -32.000000 191 208 225
11.312500 -11.187500 -32.000000 192 209 227
11.375000 -11.187500 -32.000000 192 209 227
11.437500 -11.187500 -32.000000 193 210 228
11.500000 -11.187500 -32.000000 193 210 228
11.562500 -11.187500 -32.000000 194 211 231
12.062500 -11.187500 -32.000000 194 213 229
12.125000 -11.187500 -32.000000 193 212 228
2.633257 -1.630980 -4.665148 184 210 227
2.612613 -1.612613 -4.612613 185 211 228
2.621622 -1.612613 -4.612613 184 211 228
2.630631 -1.612613 -4.612613 184 211 228
2.639640 -1.612613 -4.612613 184 211 228
2.648649 -1.612613 -4.612613 185 212 229
2.657658 -1.612613 -4.612613 184 213 229
2.666667 -1.612613 -4.612613 185 214 230
2.675676 -1.612613 -4.612613 186 215 231
2.684685 -1.612613 -4.612613 187 214 233
2.693694 -1.612613 -4.612613 189 216 235
2.702703 -1.612613 -4.612613 188 217 235
2.711712 -1.612613 -4.612613 188 217 235
2.720721 -1.612613 -4.612613 189 218 236
2.729730 -1.612613 -4.612613 190 219 237
2.738739 -1.612613 -4.612613 192 221 239
2.828829 -1.612613 -4.612613 194 225 243
2.837838 -1.612613 -4.612613 191 223 238
2.846847 -1.612613 -4.612613 191 222 240
2.855856 -1.612613 -4.612613 190 221 239
2.864865 -1.612613 -4.612613 190 221 239
2.873874 -1.612613 -4.612613 187 220 235
-2.187500 -11.250000 -32.000000 175 159 144
-2.125000 -11.250000 -32.000000 175 159 144
-2.062500 -11.250000 -32.000000 176 160 145
-2.000000 -11.250000 -32.000000 175 159 144
-1.937500 -11.250000 -32.000000 175 159 144
-1.875000 -11.250000 -32.000000 175 159 144
-1.812500 -11.250000 -32.000000 175 159 144
-1.750000 -11.250000 -32.000000 175 159 144
-1.687500 -11.250000 -32.000000 175 159 144
-1.625000 -11.250000 -32.000000 175 159 144
-1.562500 -11.250000 -32.000000 175 159 144
-1.500000 -11.250000 -32.000000 175 159 144
-1.437500 -11.250000 -32.000000 175 159 144
-1.375000 -11.250000 -32.000000 175 159 146
-1.312500 -11.250000 -32.000000 175 159 142
-1.250000 -11.250000 -32.000000 175 159 142
-1.187500 -11.250000 -32.000000 175 159 142
-1.125000 -11.250000 -32.000000 174 158 141
-1.062500 -11.250000 -32.000000 174 159 140
-1.000000 -11.250000 -32.000000 173 158 139
-0.937500 -11.250000 -32.000000 173 158 139
-0.875000 -11.250000 -32.000000 173 158 139
-0.812500 -11.250000 -32.000000 172 157 136
-0.750000 -11.250000 -32.000000 173 158 137
-0.687500 -11.250000 -32.000000 174 159 138
-0.625000 -11.250000 -32.000000 175 160 139
-0.562500 -11.250000 -32.000000 175 160 137
-0.500000 -11.250000 -32.000000 174 159 136
-0.437500 -11.250000 -32.000000 173 158 135
-0.375000 -11.250000 -32.000000 172 157 138
-0.312500 -11.250000 -32.000000 172 156 139
-0.250000 -11.250000 -32.000000 171 155 138
-0.187500 -11.250000 -32.000000 170 154 137
-0.125000 -11.250000 -32.000000 169 154 135
-0.062500 -11.250000 -32.000000 169 154 133
0.000000 -11.250000 -32.000000 169 154 133
0.062500 -11.250000 -32.000000 170 155 132
0.125000 -11.250000 -32.000000 170 155 132
0.187500 -11.250000 -32.000000 167 152 129
0.586207 -6.206897 -17.655172 171 155 132
0.619355 -6.193548 -17.617205 170 154 131
0.650964 -6.167024 -17.541756 169 153 130
0.682303 -6.140725 -17.466951 167 151 128
1.275563 -4.991334 -14.197574 162 145 127
1.249169 -4.784053 -13.607973 162 145 127
1.256956 -4.713584 -13.407529 163 146 128
4.375000 -11.250000 -32.000000 182 188 200
4.437500 -11.250000 -32.000000 183 191 202
4.500000 -11.250000 -32.000000 183 193 203
4.562500 -11.250000 -32.000000 185 195 205
4.625000 -11.250000 -32.000000 185 195 205
4.687500 -11.250000 -32.000000 186 196 208
4.750000 -11.250000 -32.000000 184 196 210
4.812500 -11.250000 -32.000000 186 198 212
4.875000 -11.250000 -32.000000 187 199 213
4.937500 -11.250000 -32.000000 187 199 215
5.000000 -11.250000 -32.000000 186 198 214
5.062500 -11.250000 -32.000000 186 198 214
5.125000 -11.250000 -32.000000 187 199 215
5.187500 -11.250000 -32.000000 187 199 215
5.250000 -11.250000 -32.000000 186 199 215
5.312500 -11.250000 -32.000000 186 199 215
5.375000 -11.250000 -32.000000 184 200 215
5.437500 -11.250000 -32.000000 185 201 216
5.500000 -11.250000 -32.000000 185 201 216
7.687500 -11.250000 -32.000000 189 205 222
7.750000 -11.250000 -32.000000 189 204 223
7.812500 -11.250000 -32.000000 189 204 223
7.875000 -11.250000 -32.000000 190 205 224
7.937500 -11.250000 -32.000000 191 206 225
8.000000 -11.250000 -32.000000 191 206 225
8.062500 -11.250000 -32.000000 191 206 225
8.125000 -11.250000 -32.000000 190 205 224
8.187500 -11.250000 -32.000000 190 205 224
8.250000 -11.250000 -32.000000 190 205 224
8.312500 -11.250000 -32.000000 190 205 224
8.375000 -11.250000 -32.000000 190 205 224
4.556962 -6.075949 -17.282700 191 206 225
4.552301 -6.025105 -17.138075 191 206 225
4.594705 -5.865581 -16.684319 192 207 226
4.617886 -5.853659 -16.650406 192 207 226
4.622222 -5.818182 -16.549496 192 207 226
9.000000 -11.250000 -32.000000 192 207 226
4.793522 -5.829959 -16.582996 193 210 228
4.806452 -5.806452 -16.516129 193 210 228
4.838710 -5.806452 -16.516129 193 210 228
9.437500 -11.250000 -32.000000 193 210 228
9.500000 -11.250000 -32.000000 192 209 227
10.687500 -11.250000 -32.000000 192 209 227
10.750000 -11.250000 -32.000000 190 207 227
10.812500 -11.250000 -32.000000 190 207 227
10.875000 -11.250000 -32.000000 190 207 225
10.937500 -11.250000 -32.000000 190 207 225
11.000000 -11.250000 -32.000000 190 207 225
11.062500 -11.250000 -32.000000 191 208 226
11.125000 -11.250000 -32.000000 191 208 225
11.187500 -11.250000 -32.000000 192 209 226
11.250000 -11.250000 -32.000000 191 208 225
11.312500 -11.250000 -32.000000 191 208 226
11.375000 -11.250000 -32.000000 191 208 226
11.437500 -11.250000 -32.000000 192 209 227
11.500000 -11.250000 -32.000000 193 210 228
11.562500 -11.250000 -32.000000 193 210 230
11.625000 -11.250000 -32.000000 194 211 231
12.062500 -11.250000 -32.000000 192 211 228
12.125000 -11.250000 -32.000000 192 211 228
2.642369 -1.640091 -4.665148 184 210 227
2.621622 -1.621622 -4.612613 184 211 228
2.630631 -1.621622 -4.612613 184 211 228
2.639640 -1.621622 -4.612613 184 211 228
2.648649 -1.621622 -4.612613 184 211 228
2.657658 -1.621622 -4.612613 184 213 229
2.666667 -1.621622 -4.612613 185 214 230
2.675676 -1.621622 -4.612613 186 215 231
2.684685 -1.621622 -4.612613 186 215 233
2.693694 -1.621622 -4.612613 188 217 235
2.702703 -1.621622 -4.612613 187 216 234
2.711712 -1.621622 -4.612613 188 217 235
2.720721 -1.621622 -4.612613 189 218 236
2.729730 -1.621622 -4.612613 190 219 237
2.828829 -1.621622 -4.612613 193 224 242
2.837838 -1.621622 -4.612613 190 222 237
2.846847 -1.621622 -4.612613 190 221 239
2.855856 -1.621622 -4.612613 190 221 239
2.864865 -1.621622 -4.612613 190 221 239
2.873874 -1.621622 -4.612613 188 221 236
-2.187500 -11.312500 -32.000000 176 160 143
-2.125000 -11.312500 -32.000000 176 160 143
-2.062500 -11.312500 -32.000000 176 160 143
-2.000000 -11.312500 -32.000000 176 160 143
-1.937500 -11.312500 -32.000000 176 160 143
-1.875000 -11.312500 -32.000000 175 159 142
-1.812500 -11.312500 -32.000000 176 160 143
-1.750000 -11.312500 -32.000000 176 160 143
-1.687500 -11.312500 -32.000000 176 160 143
-1.625000 -11.312500 -32.000000 176 160 143
-1.562500 -11.312500 -32.000000 176 160 143
-1.500000 -11.312500 -32.000000 176 160 143
-1.437500 -11.312500 -32.000000 176 160 143
-1.375000 -11.312500 -32.000000 176 160 143
-1.312500 -11.312500 -32.000000 175 159 142
-1.250000 -11.312500 -32.000000 175 159 142
-1.187500 -11.312500 -32.000000 174 158 141
-1.125000 -11.312500 -32.000000 174 158 141
-1.062500 -11.312500 -32.000000 174 159 140
-0.966038 -10.928302 -30.913208 173 158 139
-0.937500 -11.312500 -32.000000 173 158 139
-0.875000 -11.312500 -32.000000 173 158 139
-0.812500 -11.312500 -32.000000 172 157 136
-0.750000 -11.312500 -32.000000 172 157 136
-0.687500 -11.312500 -32.000000 173 158 137
-0.625000 -11.312500 -32.000000 173 158 137
-0.562500 -11.312500 -32.000000 173 158 135
-0.500000 -11.312500 -32.000000 173 158 135
-0.437500 -11.312500 -32.000000 172 157 134
-0.375000 -11.312500 -32.000000 171 156 137
-0.312500 -11.312500 -32.000000 173 157 140
-0.250000 -11.312500 -32.000000 172 156 139
-0.187500 -11.312500 -32.000000 170 154 137
-0.125000 -11.312500 -32.000000 169 154 135
-0.062500 -11.312500 -32.000000 169 154 133
0.000000 -11.312500 -32.000000 170 155 134
0.062500 -11.312500 -32.000000 171 156 133
0.125000 -11.312500 -32.000000 172 157 134
0.187500 -11.312500 -32.000000 172 157 134
0.250000 -11.312500 -32.000000 168 153 130
0.620690 -6.241379 -17.655172 171 155 132
0.653763 -6.227957 -17.617205 170 154 131
0.679406 -6.148620 -17.392782 169 153 130
1.247834 -5.019064 -14.197574 162 145 127
1.222591 -4.810631 -13.607973 162 145 127
1.230769 -4.739771 -13.407529 162 145 127
1.232745 -4.648475 -13.149278 163 146 128
1.258427 -4.648475 -13.149278 164 147 130
4.375000 -11.312500 -32.000000 183 189 201
4.437500 -11.312500 -32.000000 183 191 202
4.500000 -11.312500 -32.000000 184 194 204
4.562500 -11.312500 -32.000000 185 195 205
4.401487 -10.765800 -30.453531 185 195 205
4.460967 -10.765800 -30.453531 186 196 208
4.750000 -11.312500 -32.000000 184 196 212
4.812500 -11.312500 -32.000000 185 197 213
4.875000 -11.312500 -32.000000 186 198 214
4.937500 -11.312500 -32.000000 189 198 215
5.000000 -11.312500 -32.000000 188 197 214
5.062500 -11.312500 -32.000000 188 197 214
5.125000 -11.312500 -32.000000 189 198 213
5.187500 -11.312500 -32.000000 189 198 213
5.250000 -11.312500 -32.000000 187 199 213
5.312500 -11.312500 -32.000000 187 199 213
5.375000 -11.312500 -32.000000 187 201 214
5.437500 -11.312500 -32.000000 187 201 214
5.500000 -11.312500 -32.000000 186 202 215
7.398496 -10.887218 -30.796993 189 205 222
7.348148 -10.725926 -30.340740 188 203 222
7.812500 -11.312500 -32.000000 189 204 223
7.875000 -11.312500 -32.000000 190 205 224
7.937500 -11.312500 -32.000000 191 206 225
8.000000 -11.312500 -32.000000 191 206 225
8.062500 -11.312500 -32.000000 191 206 225
8.125000 -11.312500 -32.000000 190 205 224
8.187500 -11.312500 -32.000000 190 205 224
8.250000 -11.312500 -32.000000 189 204 223
8.312500 -11.312500 -32.000000 189 204 223
8.375000 -11.312500 -32.000000 190 205 224
8.437500 -11.312500 -32.000000 190 205 224
4.562118 -5.898167 -16.684319 192 207 226
4.594705 -5.898167 -16.684319 192 207 226
9.312500 -11.312500 -32.000000 193 210 228
9.375000 -11.312500 -32.000000 193 209 226
9.437500 -11.312500 -32.000000 192 208 225
9.500000 -11.312500 -32.000000 192 208 225
9.562500 -11.312500 -32.000000 192 208 225
9.625000 -11.312500 -32.000000 192 208 225
10.687500 -11.312500 -32.000000 189 206 226
10.750000 -11.312500 -32.000000 190 207 227
10.812500 -11.312500 -32.000000 190 207 227
10.875000 -11.312500 -32.000000 190 207 225
10.937500 -11.312500 -32.000000 190 207 225
11.000000 -11.312500 -32.000000 191 208 225
11.062500 -11.312500 -32.000000 191 208 225
11.125000 -11.312500 -32.000000 191 209 223
11.187500 -11.312500 -32.000000 191 209 223
11.250000 -11.312500 -32.000000 191 209 223
11.312500 -11.312500 -32.000000 191 208 225
11.375000 -11.312500 -32.000000 192 209 226
11.437500 -11.312500 -32.000000 192 209 227
11.500000 -11.312500 -32.000000 193 210 228
11.562500 -11.312500 -32.000000 193 210 230
11.625000 -11.312500 -32.000000 194 211 231
11.687500 -11.312500 -32.000000 194 211 231
11.750000 -11.312500 -32.000000 191 210 227
11.812500 -11.312500 -32.000000 191 210 227
11.875000 -11.312500 -32.000000 191 210 227
12.000000 -11.312500 -32.000000 192 211 228
12.062500 -11.312500 -32.000000 192 211 228
12.125000 -11.312500 -32.000000 191 210 227
2.621622 -1.630631 -4.612613 183 210 227
2.630631 -1.630631 -4.612613 183 210 227
2.639640 -1.630631 -4.612613 184 211 228
2.648649 -1.630631 -4.612613 184 211 228
2.657658 -1.630631 -4.612613 184 213 229
2.666667 -1.630631 -4.612613 185 214 230
2.675676 -1.630631 -4.612613 185 214 230
2.684685 -1.630631 -4.612613 186 215 233
2.693694 -1.630631 -4.612613 187 216 234
2.702703 -1.630631 -4.612613 185 216 234
2.711712 -1.630631 -4.612613 186 217 235
2.720721 -1.630631 -4.612613 187 218 236
2.729730 -1.630631 -4.612613 188 219 237
2.828829 -1.630631 -4.612613 195 224 242
2.837838 -1.630631 -4.612613 192 221 237
2.846847 -1.630631 -4.612613 192 221 239
2.855856 -1.630631 -4.612613 190 221 239
-2.187500 -11.375000 -32.000000 177 161 144
-2.125000 -11.375000 -32.000000 177 161 144
-2.062500 -11.375000 -32.000000 176 160 143
-2.000000 -11.375000 -32.000000 176 160 143
-1.937500 -11.375000 -32.000000 175 159 142
-1.875000 -11.375000 -32.000000 175 159 142
-1.812500 -11.375000 -32.000000 176 160 143
-1.750000 -11.375000 -32.000000 176 160 143
-1.687500 -11.375000 -32.000000 176 160 143
-1.625000 -11.375000 -32.000000 176 160 143
-1.562500 -11.375000 -32.000000 176 160 143
-1.500000 -11.375000 -32.000000 176 160 143
-1.437500 -11.375000 -32.000000 176 160 143
-1.375000 -11.375000 -32.000000 176 160 143
-1.312500 -11.375000 -32.000000 175 159 142
-1.250000 -11.375000 -32.000000 175 159 142
-1.187500 -11.375000 -32.000000 175 160 139
-1.125000 -11.375000 -32.000000 174 159 138
-1.026415 -10.988679 -30.913208 174 159 138
-0.944649 -10.745387 -30.228783 174 159 138
-0.885609 -10.745387 -30.228783 173 158 137
-0.875000 -11.375000 -32.000000 173 158 137
-0.812500 -11.375000 -32.000000 173 158 137
-0.750000 -11.375000 -32.000000 173 158 137
-0.687500 -11.375000 -32.000000 173 158 137
-0.625000 -11.375000 -32.000000 172 157 136
-0.562500 -11.375000 -32.000000 172 157 136
-0.500000 -11.375000 -32.000000 172 157 136
-0.437500 -11.375000 -32.000000 172 157 136
-0.375000 -11.375000 -32.000000 173 158 139
-0.312500 -11.375000 -32.000000 173 158 139
-0.250000 -11.375000 -32.000000 173 158 139
-0.187500 -11.375000 -32.000000 171 156 137
-0.125000 -11.375000 -32.000000 170 155 136
-0.062500 -11.375000 -32.000000 171 156 135
0.000000 -11.375000 -32.000000 171 156 135
0.062500 -11.375000 -32.000000 171 156 135
0.125000 -11.375000 -32.000000 173 158 135
0.187500 -11.375000 -32.000000 174 159 136
0.250000 -11.375000 -32.000000 170 155 132
0.648188 -6.208955 -17.466951 171 155 132
0.679406 -6.182590 -17.392782 169 153 130
1.275563 -5.046794 -14.197574 164 146 126
1.245033 -4.821192 -13.562914 164 146 126
1.232745 -4.674157 -13.149278 164 146 126
1.252396 -4.651757 -13.086262 165 146 129
4.312500 -11.375000 -32.000000 184 187 202
4.375000 -11.375000 -32.000000 183 189 203
4.437500 -11.375000 -32.000000 184 191 207
4.500000 -11.375000 -32.000000 184 193 208
4.562500 -11.375000 -32.000000 184 193 208
4.401487 -10.825279 -30.453531 185 194 209
4.460967 -10.825279 -30.453531 185 194 211
4.750000 -11.375000 -32.000000 184 196 212
4.812500 -11.375000 -32.000000 184 196 212
4.875000 -11.375000 -32.000000 186 198 214
4.937500 -11.375000 -32.000000 189 198 215
5.000000 -11.375000 -32.000000 189 198 215
5.062500 -11.375000 -32.000000 189 198 215
5.125000 -11.375000 -32.000000 189 198 213
5.187500 -11.375000 -32.000000 190 199 214
5.250000 -11.375000 -32.000000 187 199 213
5.312500 -11.375000 -32.000000 187 199 213
5.375000 -11.375000 -32.000000 187 201 214
5.437500 -11.375000 -32.000000 187 201 214
5.500000 -11.375000 -32.000000 186 202 215
7.338346 -10.947369 -30.796993 189 205 218
7.261992 -10.745387 -30.228783 189 205 218
7.321033 -10.745387 -30.228783 190 207 217
7.434944 -10.825279 -30.453531 189 205 218
7.875000 -11.375000 -32.000000 189 205 218
7.937500 -11.375000 -32.000000 188 204 219
8.000000 -11.375000 -32.000000 189 205 220
8.062500 -11.375000 -32.000000 190 206 223
8.125000 -11.375000 -32.000000 191 207 224
8.187500 -11.375000 -32.000000 191 207 224
8.250000 -11.375000 -32.000000 190 206 223
8.312500 -11.375000 -32.000000 190 206 223
8.375000 -11.375000 -32.000000 190 206 223
8.437500 -11.375000 -32.000000 190 206 223
9.312500 -11.375000 -32.000000 193 209 226
9.375000 -11.375000 -32.000000 193 209 226
9.437500 -11.375000 -32.000000 191 207 224
9.500000 -11.375000 -32.000000 191 207 224
9.562500 -11.375000 -32.000000 191 207 224
9.625000 -11.375000 -32.000000 191 207 224
10.687500 -11.375000 -32.000000 189 206 226
10.750000 -11.375000 -32.000000 190 207 227
10.812500 -11.375000 -32.000000 190 207 227
10.875000 -11.375000 -32.000000 190 207 225
10.937500 -11.375000 -32.000000 190 207 225
11.000000 -11.375000 -32.000000 190 207 224
11.062500 -11.375000 -32.000000 191 208 225
11.125000 -11.375000 -32.000000 191 209 223
11.187500 -11.375000 -32.000000 191 209 223
11.250000 -11.375000 -32.000000 190 208 222
11.312500 -11.375000 -32.000000 190 207 224
11.375000 -11.375000 -32.000000 191 208 225
11.437500 -11.375000 -32.000000 191 208 226
11.500000 -11.375000 -32.000000 192 209 227
11.562500 -11.375000 -32.000000 192 209 229
11.625000 -11.375000 -32.000000 192 209 229
11.687500 -11.375000 -32.000000 193 210 230
11.750000 -11.375000 -32.000000 191 210 227
11.812500 -11.375000 -32.000000 191 210 227
11.875000 -11.375000 -32.000000 191 210 226
11.937500 -11.375000 -32.000000 191 210 226
12.000000 -11.375000 -32.000000 191 210 226
12.062500 -11.375000 -32.000000 191 210 226
12.125000 -11.375000 -32.000000 190 209 225
12.187500 -11.375000 -32.000000 191 208 225
2.630631 -1.639640 -4.612613 184 210 225
2.639640 -1.639640 -4.612613 183 211 225
2.648649 -1.639640 -4.612613 184 212 226
2.657658 -1.639640 -4.612613 184 212 226
2.666667 -1.639640 -4.612613 185 212 229
2.675676 -1.639640 -4.612613 186 213 230
2.684685 -1.639640 -4.612613 185 214 232
2.693694 -1.639640 -4.612613 184 215 233
2.702703 -1.639640 -4.612613 184 215 233
2.711712 -1.639640 -4.612613 185 216 234
2.720721 -1.639640 -4.612613 187 218 236
2.729730 -1.639640 -4.612613 188 219 237
2.828829 -1.639640 -4.612613 194 223 241
2.837838 -1.639640 -4.612613 192 221 237
2.846847 -1.639640 -4.612613 193 222 240
2.855856 -1.639640 -4.612613 190 221 239
-8.636364 -8.318182 -23.272728 173 153 120
-8.518310 -8.247888 -23.076056 173 153 120
-8.286501 -8.066115 -22.567493 173 153 118
-8.130435 -7.956522 -22.260870 173 153 118
-8.086957 -7.956522 -22.260870 171 153 117
-10.947369 -11.007519 -30.796993 172 154 116
-10.454874 -10.570397 -29.574007 172 154 116
-9.882353 -10.764706 -30.117647 172 153 121
-9.787546 -10.725275 -30.007326 172 153 121
-10.375000 -11.437500 -32.000000 173 154 122
-2.187500 -11.437500 -32.000000 176 161 142
-2.125000 -11.437500 -32.000000 176 161 142
-2.062500 -11.437500 -32.000000 176 161 142
-2.000000 -11.437500 -32.000000 176 161 142
-1.937500 -11.437500 -32.000000 175 160 141
-1.875000 -11.437500 -32.000000 175 160 141
-1.812500 -11.437500 -32.000000 177 162 143
-1.750000 -11.437500 -32.000000 177 162 143
-1.687500 -11.437500 -32.000000 177 162 143
-1.625000 -11.437500 -32.000000 177 162 143
-1.562500 -11.437500 -32.000000 177 162 143
-1.500000 -11.437500 -32.000000 177 162 143
-1.437500 -11.437500 -32.000000 177 162 143
-1.375000 -11.437500 -32.000000 177 162 143
-1.312500 -11.437500 -32.000000 175 160 139
-1.250000 -11.437500 -32.000000 175 160 139
-1.187500 -11.437500 -32.000000 175 160 139
-1.125000 -11.437500 -32.000000 175 160 139
-1.018727 -10.966292 -30.681648 174 159 138
-0.955224 -10.925373 -30.567163 174 159 138
-0.895522 -10.925373 -30.567163 174 159 138
-0.875000 -11.437500 -32.000000 174 159 138
-0.812500 -11.437500 -32.000000 175 160 139
-0.750000 -11.437500 -32.000000 175 160 139
-0.687500 -11.437500 -32.000000 174 159 138
-0.625000 -11.437500 -32.000000 173 158 137
-0.562500 -11.437500 -32.000000 173 158 137
-0.500000 -11.437500 -32.000000 174 159 138
-0.437500 -11.437500 -32.000000 174 159 138
-0.375000 -11.437500 -32.000000 175 160 141
-0.312500 -11.437500 -32.000000 173 158 139
-0.250000 -11.437500 -32.000000 173 158 139
-0.187500 -11.437500 -32.000000 172 157 138
-0.125000 -11.437500 -32.000000 171 156 137
-0.062500 -11.437500 -32.000000 171 156 135
0.000000 -11.437500 -32.000000 171 156 135
0.062500 -11.437500 -32.000000 172 157 136
0.125000 -11.437500 -32.000000 173 158 135
0.187500 -11.437500 -32.000000 173 158 135
0.250000 -11.437500 -32.000000 171 156 133
0.312500 -11.437500 -32.000000 171 156 133
0.646809 -6.229787 -17.429787 170 153 133
0.666667 -6.100000 -17.066668 169 152 132
0.700000 -6.100000 -17.066668 169 152 134
1.525355 -5.939148 -16.616632 165 147 127
1.542169 -5.879518 -16.449799 165 147 127
1.252396 -4.677316 -13.086262 165 146 129
4.187500 -11.437500 -32.000000 181 183 195
4.250000 -11.437500 -32.000000 184 188 200
4.312500 -11.437500 -32.000000 185 188 203
4.375000 -11.437500 -32.000000 184 190 204
4.437500 -11.437500 -32.000000 184 191 207
4.500000 -11.437500 -32.000000 184 193 208
4.562500 -11.437500 -32.000000 184 193 208
4.625000 -11.437500 -32.000000 185 194 209
4.687500 -11.437500 -32.000000 185 194 211
4.750000 -11.437500 -32.000000 183 195 211
4.812500 -11.437500 -32.000000 184 196 212
4.875000 -11.437500 -32.000000 187 197 207
4.937500 -11.437500 -32.000000 187 197 209
5.000000 -11.437500 -32.000000 188 198 210
5.062500 -11.437500 -32.000000 188 198 210
5.125000 -11.437500 -32.000000 186 198 210
5.187500 -11.437500 -32.000000 186 198 210
5.250000 -11.437500 -32.000000 187 199 211
5.312500 -11.437500 -32.000000 188 200 212
5.375000 -11.437500 -32.000000 189 201 213
5.437500 -11.437500 -32.000000 189 201 215
5.500000 -11.437500 -32.000000 190 202 216
5.562500 -11.437500 -32.000000 191 203 217
5.625000 -11.437500 -32.000000 191 203 217
5.687500 -11.437500 -32.000000 191 203 217
5.750000 -11.437500 -32.000000 189 203 216
5.812500 -11.437500 -32.000000 188 202 215
7.315985 -10.884758 -30.453531 189 205 218
7.321033 -10.804428 -30.228783 190 207 217
7.812500 -11.437500 -32.000000 189 205 218
7.875000 -11.437500 -32.000000 189 205 218
7.937500 -11.437500 -32.000000 188 204 219
8.000000 -11.437500 -32.000000 189 205 220
8.062500 -11.437500 -32.000000 190 206 223
8.125000 -11.437500 -32.000000 190 206 223
8.187500 -11.437500 -32.000000 191 207 224
8.250000 -11.437500 -32.000000 191 207 224
8.312500 -11.437500 -32.000000 191 207 224
8.375000 -11.437500 -32.000000 191 207 224
8.437500 -11.437500 -32.000000 190 206 223
9.312500 -11.437500 -32.000000 192 208 225
9.375000 -11.437500 -32.000000 191 207 224
9.437500 -11.437500 -32.000000 191 207 222
9.500000 -11.437500 -32.000000 191 207 222
9.562500 -11.437500 -32.000000 191 207 224
10.687500 -11.437500 -32.000000 189 206 224
10.750000 -11.437500 -32.000000 190 207 225
10.812500 -11.437500 -32.000000 190 207 225
10.875000 -11.437500 -32.000000 190 207 224
10.937500 -11.437500 -32.000000 190 207 224
11.000000 -11.437500 -32.000000 190 207 224
11.062500 -11.437500 -32.000000 190 207 224
11.125000 -11.437500 -32.000000 190 208 222
11.187500 -11.437500 -32.000000 190 208 222
11.250000 -11.437500 -32.000000 190 208 222
11.312500 -11.437500 -32.000000 190 207 224
11.375000 -11.437500 -32.000000 190 207 224
11.437500 -11.437500 -32.000000 190 207 224
11.500000 -11.437500 -32.000000 191 208 225
11.562500 -11.437500 -32.000000 191 208 226
11.625000 -11.437500 -32.000000 192 209 227
11.687500 -11.437500 -32.000000 192 209 227
11.750000 -11.437500 -32.000000 191 210 226
11.812500 -11.437500 -32.000000 191 210 226
11.875000 -11.437500 -32.000000 191 210 226
11.937500 -11.437500 -32.000000 190 209 225
12.000000 -11.437500 -32.000000 190 209 225
12.062500 -11.437500 -32.000000 190 209 225
12.125000 -11.437500 -32.000000 189 208 224
12.187500 -11.437500 -32.000000 190 207 224
12.250000 -11.437500 -32.000000 191 208 225
2.630631 -1.648649 -4.612613 184 210 225
2.639640 -1.648649 -4.612613 183 211 225
2.648649 -1.648649 -4.612613 183 211 225
2.657658 -1.648649 -4.612613 184 212 226
2.666667 -1.648649 -4.612613 185 212 229
2.675676 -1.648649 -4.612613 186 213 230
2.684685 -1.648649 -4.612613 185 214 232
2.693694 -1.648649 -4.612613 183 214 232
2.702703 -1.648649 -4.612613 183 214 232
2.711712 -1.648649 -4.612613 184 215 233
2.720721 -1.648649 -4.612613 186 217 235
2.729730 -1.648649 -4.612613 188 219 237
2.828829 -1.648649 -4.612613 194 223 241
2.837838 -1.648649 -4.612613 193 222 238
2.846847 -1.648649 -4.612613 193 222 240
2.855856 -1.648649 -4.612613 192 221 239
2.864865 -1.648649 -4.612613 190 219 237
-8.681818 -8.363636 -23.272728 174 154 121
-8.563380 -8.292957 -23.076056 174 154 121
-8.330579 -8.110193 -22.567493 174 154 121
-8.196185 -8.021798 -22.321526 173 153 118
-8.130435 -8.000000 -22.260870 173 153 118
-8.043243 -7.956757 -22.140541 171 153 117
-8.043478 -8.000000 -22.260870 171 153 117
-10.512635 -10.628159 -29.574007 172 154 116
-10.417266 -10.589928 -29.467627 177 152 122
-10.212766 -10.439716 -29.049644 177 152 121
-10.294118 -10.823529 -30.117647 174 154 119
-9.846154 -10.783883 -30.007326 175 152 120
-9.716364 -10.705455 -29.789091 175 152 120
-9.658182 -10.705455 -29.789091 175 152 121
-2.187500 -11.500000 -32.000000 176 161 142
-2.125000 -11.500000 -32.000000 176 161 142
-2.062500 -11.500000 -32.000000 176 161 142
-2.000000 -11.500000 -32.000000 176 161 142
-1.937500 -11.500000 -32.000000 176 161 142
-1.875000 -11.500000 -32.000000 175 160 141
-1.812500 -11.500000 -32.000000 176 161 142
-1.750000 -11.500000 -32.000000 176 161 142
-1.687500 -11.500000 -32.000000 176 161 142
-1.625000 -11.500000 -32.000000 176 161 142
-1.562500 -11.500000 -32.000000 176 161 142
-1.500000 -11.500000 -32.000000 176 161 142
-1.437500 -11.500000 -32.000000 176 161 142
-1.375000 -11.500000 -32.000000 176 161 142
-1.312500 -11.500000 -32.000000 176 161 140
-1.250000 -11.500000 -32.000000 175 160 139
-1.187500 -11.500000 -32.000000 175 160 139
-1.125000 -11.500000 -32.000000 175 160 141
-1.062500 -11.500000 -32.000000 175 160 141
-0.966038 -11.109434 -30.913208 175 160 141
-0.937500 -11.500000 -32.000000 174 159 140
-0.875000 -11.500000 -32.000000 174 159 140
-0.812500 -11.500000 -32.000000 175 160 141
-0.750000 -11.500000 -32.000000 175 159 142
-0.687500 -11.500000 -32.000000 175 159 142
-0.625000 -11.500000 -32.000000 175 159 142
-0.562500 -11.500000 -32.000000 175 159 142
-0.500000 -11.500000 -32.000000 174 158 141
-0.437500 -11.500000 -32.000000 174 158 141
-0.375000 -11.500000 -32.000000 174 158 141
-0.312500 -11.500000 -32.000000 172 157 138
-0.250000 -11.500000 -32.000000 172 157 138
-0.187500 -11.500000 -32.000000 172 157 136
-0.125000 -11.500000 -32.000000 172 157 136
-0.062500 -11.500000 -32.000000 172 157 136
0.000000 -11.500000 -32.000000 171 156 133
0.062500 -11.500000 -32.000000 171 156 133
0.125000 -11.500000 -32.000000 172 157 134
0.187500 -11.500000 -32.000000 172 157 134
0.250000 -11.500000 -32.000000 171 156 133
0.312500 -11.500000 -32.000000 171 156 135
0.646809 -6.263830 -17.429787 170 153 133
0.680851 -6.263830 -17.429787 168 151 131
1.502041 -6.008163 -16.718367 165 148 122
1.525355 -5.971602 -16.616632 166 148 126
4.125000 -11.500000 -32.000000 184 182 193
4.187500 -11.500000 -32.000000 184 184 196
4.250000 -11.500000 -32.000000 185 187 199
4.312500 -11.500000 -32.000000 185 187 200
4.375000 -11.500000 -32.000000 185 189 201
4.437500 -11.500000 -32.000000 186 190 202
4.500000 -11.500000 -32.000000 184 191 201
4.562500 -11.500000 -32.000000 185 192 202
4.625000 -11.500000 -32.000000 184 193 200
4.687500 -11.500000 -32.000000 184 193 202
4.750000 -11.500000 -32.000000 187 197 207
4.812500 -11.500000 -32.000000 187 197 207
4.875000 -11.500000 -32.000000 187 197 207
4.937500 -11.500000 -32.000000 187 197 209
5.000000 -11.500000 -32.000000 187 197 209
5.062500 -11.500000 -32.000000 188 198 210
5.125000 -11.500000 -32.000000 186 198 210
5.187500 -11.500000 -32.000000 186 198 210
5.250000 -11.500000 -32.000000 187 199 211
