ply
format ascii 1.0
element vertex 1063
property float x
property float y
property float z
property uchar red
property uchar green
property uchar blue
end_header
-18.393070 -7.481927 -35.913250 159 158 129 
-18.313105 -7.474737 -35.878735 161 158 132 
-18.258299 -7.477802 -35.893448 164 162 135 
-18.193167 -7.476644 -35.887890 165 163 136 
-18.126719 -7.474936 -35.879692 166 163 135 
-18.024963 -7.458605 -35.801308 166 162 133 
-17.914043 -7.438357 -35.704113 167 163 133 
-17.799814 -7.416589 -35.599628 168 163 134 
-17.691803 -7.397269 -35.506893 167 164 133 
-17.634180 -7.398957 -35.514996 169 166 136 
-17.601196 -7.411030 -35.572945 170 168 139 
-17.547047 -7.414245 -35.588375 171 169 140 
-17.445105 -7.397217 -35.506641 171 169 141 
-17.356361 -7.385686 -35.451294 171 169 141 
-17.259912 -7.370781 -35.379749 170 169 140 
-17.183886 -7.364522 -35.349705 169 168 137 
-17.090939 -7.350941 -35.284519 167 167 134 
-17.020277 -7.346882 -35.265034 167 168 134 
-16.888765 -7.316432 -35.118877 171 172 138 
-16.732161 -7.274852 -34.919292 175 176 144 
-16.606516 -7.246480 -34.783104 178 180 148 
-16.516396 -7.233458 -34.720596 179 182 150 
-16.441160 -7.226883 -34.689041 181 184 152 
-16.373306 -7.223517 -34.672882 181 185 154 
-16.306635 -7.220651 -34.659122 181 183 154 
-16.232620 -7.214498 -34.629589 181 182 154 
-16.168888 -7.212887 -34.621857 181 181 154 
-16.054522 -7.188591 -34.505238 179 180 152 
-15.789137 -7.096241 -34.061958 176 177 148 
-15.413967 -6.953669 -33.377613 168 168 139 
-20.928125 -7.938255 -37.788715 118 116 80 
-20.369154 -7.750527 -36.895073 130 129 96 
-20.137966 -7.686732 -36.591385 138 136 107 
-20.038095 -7.672815 -36.525139 142 140 114 
-19.901674 -7.644770 -36.391632 143 141 118 
-19.836782 -7.644110 -36.388493 142 142 119 
-19.774820 -7.644579 -36.390724 143 144 120 
-19.712896 -7.645066 -36.393040 147 147 122 
-19.675804 -7.655217 -36.441360 149 149 124 
-19.580362 -7.642658 -36.381577 149 149 122 
-19.444492 -7.614186 -36.246044 147 147 118 
-19.317068 -7.588848 -36.125427 147 146 115 
-19.247969 -7.586333 -36.113453 148 146 115 
-19.179668 -7.584117 -36.102905 150 148 117 
-19.109932 -7.581317 -36.089577 151 150 119 
-19.021227 -7.570949 -36.040218 152 152 121 
-18.925026 -7.557519 -35.976288 152 153 122 
-18.868153 -7.559757 -35.986942 152 153 121 
-18.822968 -7.566708 -36.020031 151 152 120 
-18.696457 -7.540905 -35.897198 153 152 121 
-18.619638 -7.535038 -35.869270 156 154 123 
-18.557407 -7.535055 -35.869350 160 156 125 
-18.554195 -7.559116 -35.983894 160 157 129 
-18.529457 -7.574542 -36.057320 161 158 132 
-18.424065 -7.556989 -35.973766 161 158 132 
-18.324688 -7.541793 -35.901428 162 158 132 
-18.275885 -7.547379 -35.928020 164 161 133 
-18.206066 -7.544294 -35.913334 166 163 135 
-18.139524 -7.542552 -35.905041 167 163 134 
-18.039444 -7.526803 -35.830067 167 163 132 
-17.925079 -7.504964 -35.726112 167 163 132 
-17.811338 -7.483236 -35.622677 167 163 134 
-17.708830 -7.466092 -35.541065 168 164 135 
-17.650143 -7.467368 -35.547142 170 166 138 
-17.620686 -7.481063 -35.612335 172 168 141 
-17.563387 -7.482992 -35.621517 172 169 142 
-17.452486 -7.462018 -35.521671 171 169 141 
-17.369165 -7.452727 -35.477444 170 169 140 
-17.276865 -7.439504 -35.414501 170 168 138 
-17.202145 -7.433784 -35.387268 168 167 135 
-17.103769 -7.417764 -35.311008 166 166 133 
-17.030390 -7.412508 -35.285984 166 167 134 
-16.896011 -7.380569 -35.133945 171 172 139 
-16.739557 -7.338718 -34.934727 175 177 144 
-16.613716 -7.310035 -34.798183 178 180 148 
-16.534885 -7.301902 -34.759464 179 182 152 
-16.462133 -7.296403 -34.733292 181 185 154 
-16.396532 -7.294046 -34.722069 182 186 156 
-16.331440 -7.291898 -34.711845 181 185 156 
-16.250145 -7.282473 -34.666977 181 184 154 
-16.182894 -7.279294 -34.651848 180 182 153 
-16.076881 -7.258592 -34.553299 178 179 149 
-15.798581 -7.159657 -34.082333 175 175 144 
-15.385608 -6.998716 -33.316204 166 167 135 
-20.881071 -7.985864 -37.703751 120 118 87 
-20.408512 -7.829681 -36.966362 134 133 105 
-20.193420 -7.771601 -36.692146 140 139 112 
-20.055248 -7.742849 -36.556400 141 141 116 
-19.914583 -7.712950 -36.415241 142 142 118 
-19.848177 -7.711712 -36.409393 142 143 119 
-19.789194 -7.713360 -36.417175 144 144 121 
-19.729418 -7.714708 -36.423542 147 147 124 
-19.684441 -7.721871 -36.457355 149 148 124 
-19.591524 -7.710213 -36.402317 149 148 123 
-19.473850 -7.688705 -36.300770 149 148 121 
-19.361732 -7.669258 -36.208954 149 148 119 
-19.275194 -7.659850 -36.164536 149 148 118 
-19.202272 -7.655808 -36.145454 148 149 119 
-19.136358 -7.654543 -36.139484 149 152 121 
-19.044283 -7.642772 -36.083904 150 154 122 
-18.949265 -7.629737 -36.022366 150 155 121 
-18.891720 -7.631754 -36.031891 150 154 119 
-18.834719 -7.634006 -36.042519 151 153 119 
-18.707659 -7.607781 -35.918705 154 153 121 
-18.631350 -7.602089 -35.891830 157 154 124 
-18.574345 -7.604262 -35.902088 161 155 127 
-18.573284 -7.629430 -36.020916 162 156 130 
-18.544498 -7.643340 -36.086590 163 158 132 
-18.440607 -7.626285 -36.006065 163 158 132 
-18.338415 -7.609818 -35.928326 163 158 131 
-18.298504 -7.619173 -35.972488 164 159 131 
-18.239380 -7.620563 -35.979053 165 161 132 
-18.152561 -7.610352 -35.930843 167 162 133 
-18.050362 -7.593600 -35.851753 167 163 133 
-17.941513 -7.573926 -35.758862 167 163 134 
-17.831669 -7.553693 -35.663338 168 164 136 
-17.769943 -7.553774 -35.663719 170 165 140 
-17.701685 -7.551068 -35.650944 171 167 143 
-17.671268 -7.564543 -35.714565 173 169 146 
-17.617361 -7.568021 -35.730984 173 170 147 
-17.518497 -7.552144 -35.656021 173 170 146 
-17.394762 -7.525393 -35.529728 171 169 143 
-17.293610 -7.508257 -35.448822 169 168 140 
-17.239260 -7.511392 -35.463619 169 168 139 
-17.138247 -7.494143 -35.382187 167 167 137 
-17.049057 -7.481960 -35.324665 166 167 137 
-16.907909 -7.446805 -35.158684 171 171 141 
-16.757269 -7.407198 -34.971691 176 177 147 
-16.631338 -7.378266 -34.835094 178 181 150 
-16.547319 -7.367785 -34.785606 179 183 152 
-16.477318 -7.363491 -34.765331 180 185 153 
-16.418026 -7.363968 -34.767586 181 186 154 
-16.351181 -7.361048 -34.753799 181 186 154 
-16.261942 -7.347988 -34.692142 181 184 153 
-16.198563 -7.346560 -34.685398 180 182 151 
-16.097916 -7.328155 -34.598503 177 179 146 
-15.801376 -7.220104 -34.088364 174 175 142 
-15.376305 -7.052290 -33.296059 165 166 134 
-20.854906 -8.041233 -37.656509 124 121 91 
-20.417225 -7.897228 -36.982143 138 136 107 
-20.206818 -7.840500 -36.716488 142 140 113 
-20.066895 -7.810849 -36.577633 142 141 115 
-19.927553 -7.781235 -36.438953 142 141 117 
-19.863525 -7.780935 -36.437550 143 142 118 
-19.797422 -7.779818 -36.432320 144 144 121 
-19.740677 -7.782382 -36.444328 147 146 124 
-19.694937 -7.789316 -36.476795 148 147 124 
-19.597990 -7.775977 -36.414330 149 148 123 
-19.495842 -7.760481 -36.341766 150 150 123 
-19.402727 -7.748491 -36.285618 152 150 122 
-19.314602 -7.738424 -36.238472 151 151 121 
-19.229218 -7.729391 -36.196175 150 151 121 
-19.153860 -7.724344 -36.172535 151 153 122 
-19.061081 -7.712214 -36.115730 152 154 121 
-18.974695 -7.702599 -36.070705 153 154 121 
-18.916525 -7.704412 -36.079201 153 153 119 
-18.856615 -7.705527 -36.084419 154 153 119 
-18.722784 -7.676342 -35.947746 156 154 121 
-18.642767 -7.669098 -35.913826 158 154 123 
-18.585361 -7.671139 -35.923382 160 155 126 
-18.585999 -7.697232 -36.045574 161 156 129 
-18.558302 -7.711727 -36.113453 162 157 131 
-18.455614 -7.695052 -36.035366 164 159 131 
-18.352148 -7.677940 -35.955231 164 159 131 
-18.313234 -7.687809 -36.001446 165 160 132 
-18.250668 -7.687781 -36.001316 165 160 132 
-18.165722 -7.678295 -35.956890 166 161 133 
-18.074696 -7.666164 -35.900085 167 163 136 
-17.969101 -7.647749 -35.813847 168 164 137 
-17.859945 -7.627685 -35.719891 169 165 139 
-17.793985 -7.625994 -35.711971 170 166 143 
-17.730400 -7.625312 -35.708778 172 169 146 
-17.694010 -7.636363 -35.760529 173 170 149 
-17.641748 -7.640617 -35.780449 174 170 150 
-17.546637 -7.626277 -35.713295 172 171 149 
-17.418680 -7.597509 -35.578579 171 169 146 
-17.327242 -7.584522 -35.517765 169 168 144 
-17.293613 -7.596837 -35.575432 170 169 144 
-17.227505 -7.594922 -35.566463 169 169 143 
-17.140127 -7.583581 -35.513355 169 169 143 
-16.975761 -7.537973 -35.299778 173 173 147 
-16.793776 -7.484183 -35.047882 178 179 151 
-16.649157 -7.446714 -34.872417 179 181 152 
-16.555706 -7.431942 -34.803238 179 183 152 
-16.490276 -7.429685 -34.792671 180 185 152 
-16.439745 -7.434149 -34.813576 180 186 152 
-16.381939 -7.435345 -34.819176 180 185 151 
-16.279615 -7.416269 -34.729843 181 184 151 
-16.222124 -7.417551 -34.735847 180 182 148 
-16.112564 -7.394946 -34.629990 177 178 144 
-15.806867 -7.281815 -34.100204 172 173 138 
-15.358290 -7.101765 -33.257046 164 165 131 
-20.849459 -8.104491 -37.646671 126 121 89 
-20.421421 -7.963070 -36.989742 139 135 105 
-20.219925 -7.909371 -36.740307 144 140 112 
-20.083532 -7.880880 -36.607960 144 141 114 
-19.942371 -7.850330 -36.466053 143 140 116 
-19.878988 -7.850301 -36.465912 144 141 119 
-19.823185 -7.853275 -36.479729 146 144 123 
-19.754208 -7.851031 -36.469307 147 145 125 
-19.705751 -7.856955 -36.496822 148 146 125 
-19.612667 -7.845067 -36.441601 149 148 125 
-19.510759 -7.829560 -36.369572 150 150 125 
-19.429520 -7.822274 -36.335724 152 152 125 
-19.341660 -7.812266 -36.289238 152 153 124 
-19.251545 -7.801280 -36.238201 152 153 122 
-19.169868 -7.793651 -36.202766 153 154 122 
-19.076210 -7.781086 -36.144398 154 154 121 
-18.998220 -7.774849 -36.115429 155 153 119 
-18.939564 -7.776509 -36.123142 155 152 117 
-18.874050 -7.775356 -36.117783 156 152 118 
-18.736170 -7.744284 -35.973446 158 154 121 
-18.653866 -7.736052 -35.935207 159 155 123 
-18.597605 -7.738601 -35.947048 159 156 125 
-18.603727 -7.767212 -36.079956 160 156 127 
-18.572338 -7.780304 -36.140766 163 158 130 
-18.466908 -7.762361 -36.057419 164 159 130 
-18.359938 -7.743647 -35.970490 164 159 131 
-18.320656 -7.753451 -36.016033 165 160 132 
-18.265924 -7.756762 -36.031410 166 161 133 
-18.185757 -7.749257 -35.996552 167 162 135 
-18.092722 -7.736198 -35.935886 168 163 138 
-17.986950 -7.717585 -35.849426 169 164 139 
-17.871002 -7.694459 -35.742004 169 165 140 
-17.811951 -7.695755 -35.748028 171 168 142 
-17.740019 -7.691476 -35.728149 172 170 146 
-17.703745 -7.702682 -35.780197 173 170 148 
-17.658958 -7.710249 -35.815353 172 170 149 
-17.557949 -7.693236 -35.736320 172 171 150 
-17.441130 -7.669149 -35.624432 171 171 148 
-17.379755 -7.669358 -35.625404 170 171 148 
-17.318106 -7.669446 -35.625816 170 170 147 
-17.250267 -7.666786 -35.613457 170 169 146 
-17.175386 -7.660964 -35.586411 171 170 147 
-17.007269 -7.613362 -35.365295 176 175 150 
-16.807837 -7.551347 -35.077225 179 180 153 
-16.661963 -7.513031 -34.899239 179 182 153 
-16.564032 -7.496131 -34.820740 179 183 152 
-16.505505 -7.497006 -34.824802 179 185 151 
-16.463428 -7.505387 -34.863731 179 185 150 
-16.403776 -7.505787 -34.865593 179 184 149 
-16.307608 -7.489419 -34.789562 180 184 148 
-16.234600 -7.483607 -34.762562 180 183 147 
-16.124487 -7.460584 -34.655613 176 179 143 
-15.808456 -7.341755 -34.103638 170 172 136 
-15.344400 -7.153029 -33.226974 162 164 130 
-20.845470 -8.168287 -37.639469 127 120 87 
-20.429193 -8.030343 -37.003822 140 134 102 
-20.240059 -7.981096 -36.776890 144 139 109 
-20.095835 -7.949302 -36.630383 144 140 113 
-19.949821 -7.916596 -36.479675 143 140 116 
-19.894583 -7.919817 -36.494518 145 142 120 
-19.835791 -7.921642 -36.502926 147 144 123 
-19.765875 -7.919021 -36.490845 148 145 125 
-19.716873 -7.924788 -36.517422 148 147 126 
-19.624519 -7.913113 -36.463623 149 149 126 
-19.522701 -7.897532 -36.391830 149 150 126 
-19.440802 -7.889936 -36.356823 151 153 125 
-19.350752 -7.878971 -36.306297 152 154 124 
-19.261583 -7.868293 -36.257095 152 153 123 
-19.179602 -7.860492 -36.221149 154 154 122 
-19.088064 -7.848711 -36.166859 155 153 121 
-19.010576 -7.842647 -36.138916 155 152 120 
-18.956446 -7.846210 -36.155338 155 151 119 
-18.895683 -7.847045 -36.159184 156 152 121 
-18.758314 -7.815964 -36.015965 159 155 124 
-18.679886 -7.809317 -35.985332 159 157 126 
-18.616205 -7.808811 -35.983002 159 158 127 
-18.627935 -7.840040 -36.126904 161 158 129 
-18.584972 -7.848383 -36.165352 163 159 131 
-18.482210 -7.831445 -36.087296 163 160 131 
-18.371567 -7.811040 -35.993271 164 160 131 
-18.333849 -7.821608 -36.041969 164 161 132 
-18.281412 -7.825947 -36.061962 165 162 134 
-18.204426 -7.819770 -36.033501 167 164 136 
-18.112593 -7.807152 -35.975357 167 165 139 
-18.006458 -7.788260 -35.888306 167 165 140 
-17.883928 -7.762122 -35.767857 168 166 140 
-17.823814 -7.762985 -35.771835 170 169 142 
-17.751444 -7.758498 -35.751160 171 170 145 
-17.724363 -7.773844 -35.821873 171 170 146 
-17.671669 -7.778023 -35.841133 171 170 148 
-17.571522 -7.761272 -35.763943 173 172 150 
-17.479164 -7.747856 -35.702122 174 173 150 
-17.398193 -7.739410 -35.663200 172 172 149 
-17.325109 -7.734424 -35.640224 170 170 147 
-17.260000 -7.732975 -35.633553 170 169 145 
-17.188169 -7.728493 -35.612896 171 170 145 
-17.016020 -7.678709 -35.383492 175 175 149 
-16.817169 -7.616472 -35.096703 178 180 152 
-16.672636 -7.578471 -34.921593 179 181 153 
-16.578388 -7.563133 -34.850918 180 182 152 
-16.518204 -7.563280 -34.851593 179 184 151 
-16.476583 -7.571959 -34.891590 179 184 150 
-16.415918 -7.571918 -34.891396 179 184 148 
-16.319227 -7.555198 -34.814350 180 184 147 
-16.244968 -7.548777 -34.784767 180 183 148 
-16.143881 -7.529795 -34.697296 176 179 146 
-15.812562 -7.402885 -34.112492 170 172 142 
-20.842680 -8.232532 -37.634430 129 120 87 
-20.433672 -8.096361 -37.011936 141 133 102 
-20.250635 -8.049149 -36.796108 144 138 108 
-20.108450 -8.017926 -36.653378 145 141 113 
-19.974667 -7.989867 -36.525105 145 142 117 
-19.919046 -7.992993 -36.539394 147 144 120 
-19.850889 -7.991093 -36.530712 148 144 122 
-19.787062 -7.990929 -36.529961 147 144 123 
-19.732752 -7.994620 -36.546833 148 146 124 
-19.634760 -7.980580 -36.482651 149 148 126 
-19.536404 -7.966300 -36.417374 150 151 127 
-19.455223 -7.958955 -36.383793 151 153 127 
-19.364391 -7.947600 -36.331886 152 154 126 
-19.278032 -7.938013 -36.288059 153 153 125 
-19.204128 -7.933509 -36.267467 155 153 125 
-19.141565 -7.933675 -36.268230 156 154 126 
-19.098242 -7.941843 -36.305569 155 154 126 
-19.076862 -7.959220 -36.385006 154 152 126 
-19.019733 -7.961749 -36.396564 154 153 128 
-18.932774 -7.951765 -36.350925 157 157 132 
-18.845766 -7.941694 -36.304886 159 159 134 
-18.766504 -7.934830 -36.273510 159 159 135 
-18.712555 -7.938660 -36.291016 161 159 135 
-18.641518 -7.935241 -36.275387 163 160 136 
-18.541975 -7.919623 -36.203991 163 161 136 
-18.420486 -7.894494 -36.089115 163 162 135 
-18.357325 -7.894276 -36.088120 164 163 134 
-18.302395 -7.897608 -36.103352 164 164 135 
-18.225143 -7.891299 -36.074509 165 165 137 
-18.125940 -7.875409 -36.001869 166 166 139 
-18.024496 -7.858431 -35.924255 166 167 140 
-17.901758 -7.832019 -35.803516 168 167 142 
-17.838837 -7.831684 -35.801987 170 169 144 
-17.764473 -7.826306 -35.777401 170 169 144 
-17.736294 -7.841309 -35.845982 170 170 145 
-17.684675 -7.846018 -35.867512 172 171 148 
-17.587223 -7.830354 -35.795902 174 173 151 
-17.490244 -7.814790 -35.724754 174 173 151 
-17.408672 -7.806024 -35.684681 172 171 149 
-17.337658 -7.801946 -35.666039 170 169 146 
-17.277788 -7.802872 -35.670273 169 168 143 
-17.198547 -7.795025 -35.634399 170 170 144 
-17.026321 -7.744825 -35.404915 174 174 148 
-16.825199 -7.681069 -35.113457 178 179 152 
-16.690012 -7.647060 -34.957989 180 181 155 
-16.608824 -7.637634 -34.914898 181 183 155 
-16.554050 -7.640331 -34.927227 181 184 154 
-16.498159 -7.642530 -34.937279 180 184 152 
-16.435881 -7.641775 -34.933830 180 184 150 
-16.346739 -7.628479 -34.873043 181 184 150 
-16.263363 -7.617783 -34.824150 179 182 150 
-16.174177 -7.604277 -34.762409 177 179 150 
-15.817594 -7.464482 -34.123348 173 175 149 
-20.832651 -8.293877 -37.616322 130 124 91 
-20.442932 -8.164315 -37.028706 141 135 104 
-20.263174 -8.118053 -36.818890 143 139 109 
-20.119349 -8.085940 -36.673244 145 141 114 
-19.993059 -8.060694 -36.558735 147 143 117 
-19.933077 -8.062104 -36.565132 148 144 119 
-19.873959 -8.063875 -36.573166 147 143 120 
-19.808502 -8.063077 -36.569546 146 143 121 
-19.742611 -8.062096 -36.565094 148 146 123 
-19.648632 -8.049601 -36.508427 150 149 127 
-19.548527 -8.034508 -36.439972 151 151 128 
-19.466656 -8.026835 -36.405174 152 153 128 
-19.379318 -8.016851 -36.359894 153 154 128 
-19.295813 -8.008392 -36.321529 154 154 127 
-19.221323 -8.003633 -36.299942 156 154 127 
-19.153309 -8.001547 -36.290482 156 155 127 
-19.116976 -8.012726 -36.341183 156 155 128 
-19.106863 -8.035005 -36.442226 154 154 129 
-19.062063 -8.042797 -36.477570 155 155 132 
-18.987661 -8.038110 -36.456310 159 158 137 
-18.894888 -8.025588 -36.399517 160 159 139 
-18.820040 -8.020621 -36.376987 161 159 140 
-18.758507 -8.021315 -36.380135 163 159 139 
-18.668409 -8.009756 -36.327713 164 160 139 
-18.591810 -8.003932 -36.301300 165 162 140 
-18.505085 -7.993693 -36.254860 166 163 140 
-18.457056 -8.000157 -36.284180 166 164 140 
-18.352467 -7.982066 -36.202126 166 165 139 
-18.244442 -7.962351 -36.112709 166 165 139 
-18.141222 -7.944604 -36.032223 167 167 140 
-18.042562 -7.928738 -35.960262 168 167 141 
-17.916185 -7.900540 -35.832371 169 168 143 
-17.855270 -7.901113 -35.834969 171 169 146 
-17.781725 -7.896080 -35.812145 171 170 146 
-17.757456 -7.912971 -35.888752 172 170 147 
-17.699701 -7.915007 -35.897984 173 172 149 
-17.599125 -7.897840 -35.820126 174 173 150 
-17.508577 -7.885068 -35.762199 174 172 149 
-17.426039 -7.875825 -35.720280 172 170 147 
-17.355406 -7.871916 -35.702549 170 168 144 
-17.288017 -7.869456 -35.691391 170 168 143 
-17.209229 -7.861770 -35.656532 171 170 145 
-17.034229 -7.809917 -35.421356 174 174 149 
-16.836214 -7.747098 -35.136448 179 178 153 
-16.704327 -7.714362 -34.987972 181 182 156 
-16.630514 -7.708304 -34.960495 183 184 156 
-16.573135 -7.709847 -34.967495 183 184 154 
-16.511511 -7.709419 -34.965553 181 184 152 
-16.448277 -7.708232 -34.960175 181 184 150 
-16.358486 -7.694547 -34.898102 182 184 150 
-16.282007 -7.687044 -34.864075 180 183 152 
-16.185972 -7.670218 -34.787762 178 180 151 
-15.816451 -7.523181 -34.120884 174 177 152 
-20.830469 -8.358307 -37.612381 128 126 91 
-20.455828 -8.233792 -37.052063 138 136 103 
-20.279085 -8.188400 -36.847801 141 139 108 
-20.142351 -8.158927 -36.715172 143 141 112 
-20.021460 -8.135705 -36.610672 148 144 114 
-19.963249 -8.137885 -36.620483 149 145 116 
-19.902927 -8.139216 -36.626472 149 144 118 
-19.844778 -8.141447 -36.636513 149 145 120 
-19.772526 -8.137889 -36.620499 151 148 124 
-19.667337 -8.120707 -36.543182 152 150 126 
-19.560692 -8.102811 -36.462646 152 151 127 
-19.481121 -8.096050 -36.432224 152 153 126 
-19.392836 -8.085612 -36.385254 153 154 126 
-19.317808 -8.080652 -36.362934 154 154 124 
-19.248398 -8.078016 -36.351074 154 154 124 
-19.169468 -8.071355 -36.321098 155 155 125 
-19.134190 -8.083090 -36.373905 155 155 126 
-19.126123 -8.106436 -36.478962 156 155 128 
-19.079124 -8.113381 -36.510220 157 156 132 
-19.000549 -8.106901 -36.481052 160 159 136 
-18.911171 -8.095753 -36.430885 161 159 137 
-18.831429 -8.088668 -36.399006 162 159 139 
-18.772537 -8.090522 -36.407345 164 159 138 
-18.685839 -8.080362 -36.361629 166 160 139 
-18.606295 -8.073239 -36.329578 166 161 140 
-18.523308 -8.064569 -36.290562 166 163 142 
-18.485451 -8.075555 -36.339996 167 164 143 
-18.401787 -8.066536 -36.299416 168 165 143 
-18.316357 -8.056680 -36.255058 168 166 144 
-18.181410 -8.024899 -36.112045 168 167 144 
-18.088964 -8.011722 -36.052746 170 168 145 
-17.958981 -7.981769 -35.917961 171 168 147 
-17.885246 -7.976696 -35.895130 173 170 149 
-17.817024 -7.974053 -35.883240 174 170 149 
-17.780409 -7.985588 -35.935143 174 171 149 
-17.716732 -7.985006 -35.932526 175 172 149 
-17.620615 -7.969748 -35.863865 175 172 148 
-17.527050 -7.955540 -35.799931 174 171 147 
-17.438656 -7.943587 -35.746143 173 170 146 
-17.368395 -7.939837 -35.729267 171 168 143 
-17.303556 -7.938549 -35.723469 170 168 141 
-17.220144 -7.928700 -35.679150 172 170 144 
-17.047390 -7.877494 -35.448727 175 174 147 
-16.846043 -7.812658 -35.156960 179 179 152 
-16.728298 -7.786263 -35.038181 183 183 154 
-16.650625 -7.778394 -35.002773 184 184 154 
-16.602024 -7.784099 -35.028446 183 184 151 
-16.543783 -7.785310 -35.033894 182 184 149 
-16.469007 -7.778719 -35.004238 181 183 148 
-16.370407 -7.760786 -34.923534 182 184 149 
-16.301004 -7.756612 -34.904755 181 184 150 
-16.194916 -7.734885 -34.806984 178 181 151 
-15.815197 -7.581817 -34.118179 173 177 151 
-20.827955 -8.422590 -37.607845 124 125 88 
-20.472984 -8.305079 -37.083141 136 135 100 
-20.301449 -8.261473 -36.888439 141 139 105 
-20.200413 -8.246371 -36.821007 144 141 107 
-20.111248 -8.236035 -36.774857 147 143 108 
-20.052832 -8.238265 -36.784809 149 145 110 
-19.971016 -8.230865 -36.751774 149 145 113 
-19.903494 -8.229329 -36.744911 151 147 116 
-19.815483 -8.219284 -36.700058 152 150 120 
-19.702639 -8.198840 -36.608776 152 150 122 
-19.640007 -8.199226 -36.610497 151 151 121 
-19.539467 -8.183738 -36.541340 151 151 121 
-19.441229 -8.169116 -36.476051 152 153 121 
-19.338249 -8.152399 -36.401409 152 154 122 
-19.261118 -8.146506 -36.375095 153 155 123 
-19.182554 -8.139966 -36.345894 154 156 124 
-19.149876 -8.152917 -36.403725 155 157 126 
-19.153919 -8.181641 -36.531979 157 158 127 
-19.111254 -8.190537 -36.571705 158 158 129 
-19.050171 -8.191574 -36.576328 160 159 131 
-18.962107 -8.180976 -36.529007 161 159 132 
-18.907784 -8.184913 -36.546589 162 160 133 
-18.815329 -8.172314 -36.490334 164 160 134 
-18.725780 -8.160897 -36.439358 166 160 135 
-18.626913 -8.145329 -36.369839 166 160 138 
-18.545660 -8.137382 -36.334354 165 161 141 
-18.502033 -8.145947 -36.372601 166 163 144 
-18.431999 -8.142904 -36.359013 169 165 146 
-18.345821 -8.132684 -36.313377 169 166 147 
-18.214624 -8.102367 -36.178013 170 167 147 
-18.105692 -8.081779 -36.086086 170 168 147 
-17.978016 -8.052652 -35.956032 172 169 149 
-17.897083 -8.044333 -35.918884 174 171 149 
-17.828449 -8.041503 -35.906246 175 171 149 
-17.790855 -8.052703 -35.956253 175 171 149 
-17.728308 -8.052647 -35.956005 175 172 148 
-17.647657 -8.044338 -35.918907 173 171 146 
-17.545605 -8.026181 -35.837830 173 171 145 
-17.451277 -8.011440 -35.772011 173 171 145 
-17.391464 -8.012496 -35.776726 171 170 141 
-17.330229 -8.012901 -35.778538 171 169 138 
-17.266928 -8.012351 -35.776077 172 170 139 
-17.089046 -7.958437 -35.535347 175 173 142 
-16.889681 -7.894090 -35.248028 179 178 147 
-16.755983 -7.860079 -35.096169 182 182 151 
-16.680174 -7.853075 -35.064892 183 184 151 
-16.617666 -7.852304 -35.061451 182 184 150 
-16.557707 -7.852736 -35.063381 181 184 149 
-16.481962 -7.845657 -35.031773 181 183 149 
-16.392101 -7.831782 -34.969814 181 183 151 
-16.317219 -7.824986 -34.939472 181 184 152 
-16.208508 -7.801856 -34.836193 178 181 153 
-15.813518 -7.640239 -34.114555 173 177 150 
-20.827795 -8.487816 -37.607555 126 126 88 
-20.483334 -8.373690 -37.101887 138 136 100 
-20.320011 -8.333127 -36.922165 143 140 106 
-20.219366 -8.318093 -36.855553 146 142 107 
-20.130348 -8.307762 -36.809780 147 142 106 
-20.073240 -8.310577 -36.822250 148 145 108 
-19.999083 -8.306329 -36.803425 149 147 111 
-19.935486 -8.306453 -36.803974 150 148 113 
-19.840532 -8.293470 -36.746452 151 150 117 
-19.729935 -8.273844 -36.659492 151 151 119 
-19.652523 -8.268052 -36.633827 151 152 120 
-19.549305 -8.251329 -36.559738 151 151 120 
-19.450281 -8.236276 -36.493034 152 152 121 
-19.367451 -8.228002 -36.456379 154 153 125 
-19.300480 -8.226435 -36.449432 155 156 127 
-19.228456 -8.222695 -36.432865 156 158 128 
-19.181345 -8.229620 -36.463547 156 159 129 
-19.177267 -8.255115 -36.576508 155 160 127 
-19.153698 -8.272361 -36.652924 155 159 126 
-19.101801 -8.277447 -36.675457 157 159 127 
-19.023617 -8.271138 -36.647503 159 159 127 
-18.990234 -8.284330 -36.705956 161 159 127 
-18.857237 -8.254009 -36.571609 164 160 130 
-18.747776 -8.233820 -36.482159 165 161 133 
-18.657310 -8.221866 -36.429192 165 160 135 
-18.566547 -8.209698 -36.375275 164 161 139 
-18.514753 -8.214737 -36.397602 166 163 143 
-18.445154 -8.211884 -36.384960 169 165 145 
-18.374340 -8.208468 -36.369827 169 166 144 
-18.262627 -8.186695 -36.273357 168 167 143 
-18.145220 -8.162210 -36.164867 169 168 143 
-18.015152 -8.131840 -36.030304 172 170 145 
-17.931997 -8.122508 -35.988956 174 172 145 
-17.863842 -8.119927 -35.977528 174 172 145 
-17.851883 -8.142964 -36.079597 173 171 144 
-17.798746 -8.147314 -36.098866 173 171 143 
-17.678766 -8.120988 -35.982224 172 172 143 
-17.565907 -8.097758 -35.879299 172 172 143 
-17.478222 -8.086010 -35.827244 172 172 142 
-17.411489 -8.083906 -35.817921 172 171 139 
-17.349417 -8.083958 -35.818150 172 170 136 
-17.288481 -8.084541 -35.820740 172 170 136 
-17.117374 -8.033424 -35.594250 174 173 138 
-16.902454 -7.961301 -35.274689 179 178 145 
-16.772501 -7.928819 -35.130764 182 182 149 
-16.700779 -7.923728 -35.108208 181 183 151 
-16.647499 -7.927381 -35.124393 180 183 152 
-16.591221 -7.929627 -35.134350 181 183 152 
-16.527765 -7.928449 -35.129128 181 184 153 
-16.443624 -7.917301 -35.079735 182 185 155 
-16.355467 -7.904129 -35.021374 182 184 156 
-16.219250 -7.867547 -34.859283 179 181 154 
-15.811021 -7.698250 -34.109169 173 176 150 
-20.830133 -8.554068 -37.611778 130 127 93 
-20.507082 -8.447886 -37.144905 139 136 104 
-20.345415 -8.407727 -36.968327 144 140 109 
-20.282635 -8.408308 -36.970879 147 143 112 
-20.201328 -8.401187 -36.939571 148 144 111 
-20.126390 -8.396679 -36.919746 150 146 112 
-20.021589 -8.379642 -36.844841 150 147 113 
-19.958540 -8.380028 -36.846535 149 149 115 
-19.858143 -8.364684 -36.779068 149 151 117 
-19.752563 -8.347052 -36.701538 151 153 121 
-19.689724 -8.347424 -36.703175 153 154 123 
-19.583431 -8.329316 -36.623558 153 153 123 
-19.476948 -8.311010 -36.543068 154 153 124 
-19.378809 -8.296157 -36.477757 155 153 126 
-19.315729 -8.296264 -36.478230 156 156 129 
-19.249748 -8.295122 -36.473209 158 159 130 
-19.193714 -8.298272 -36.487061 156 160 130 
-19.188667 -8.323561 -36.598251 155 159 127 
-19.161325 -8.339314 -36.667522 155 159 126 
-19.114550 -8.346686 -36.699936 156 159 126 
-19.041676 -8.342673 -36.682289 158 159 125 
-19.001175 -8.352866 -36.727104 161 159 126 
-18.870188 -8.323214 -36.596725 164 161 130 
-18.764580 -8.304594 -36.514858 166 162 134 
-18.678604 -8.294566 -36.470768 165 161 137 
-18.583843 -8.280557 -36.409164 165 162 140 
-18.530106 -8.284791 -36.427784 167 164 143 
-18.461092 -8.282203 -36.416401 168 165 144 
-18.395967 -8.281346 -36.412640 168 166 142 
-18.289900 -8.261990 -36.327526 168 167 140 
-18.185272 -8.243152 -36.244698 169 169 139 
-18.099768 -8.232881 -36.199535 171 171 139 
-18.016712 -8.223656 -36.158974 172 172 139 
-17.945694 -8.219881 -36.142376 172 172 139 
-17.914402 -8.234340 -36.205952 171 171 139 
-17.827364 -8.223186 -36.156906 172 171 140 
-17.704599 -8.195415 -36.034801 174 172 141 
-17.589457 -8.170989 -35.927402 174 172 141 
-17.494005 -8.155568 -35.859600 174 172 142 
-17.431438 -8.155423 -35.858959 173 172 141 
-17.365463 -8.153677 -35.851280 172 170 138 
-17.311575 -8.157612 -35.868584 172 171 139 
-17.170361 -8.120279 -35.704433 176 175 143 
-16.960329 -8.050011 -35.395470 181 180 150 
-16.797293 -8.001620 -35.182693 182 182 152 
-16.723366 -7.995478 -35.155689 180 182 153 
-16.667707 -7.998057 -35.167030 180 183 154 
-16.625212 -8.006996 -35.206333 181 184 155 
-16.561512 -8.005749 -35.200851 182 185 156 
-16.456078 -7.984245 -35.106297 183 185 155 
-16.366505 -7.970305 -35.045006 182 184 155 
-16.228222 -7.932452 -34.878567 179 181 153 
-15.805374 -7.754697 -34.096989 173 175 148 
-20.832853 -8.620491 -37.616688 130 126 97 
-20.527739 -8.520948 -37.182320 139 134 107 
-20.363398 -8.479396 -37.000999 144 139 111 
-20.296982 -8.478486 -36.997032 147 142 113 
-20.232059 -8.478196 -36.995766 149 145 114 
-20.159203 -8.474569 -36.979939 151 147 115 
-20.052525 -8.456656 -36.901768 150 147 116 
-19.989683 -8.457173 -36.904030 150 149 118 
-19.885553 -8.440170 -36.829834 150 152 120 
-19.781921 -8.423269 -36.756084 153 155 123 
-19.718615 -8.423486 -36.757030 155 156 125 
-19.609640 -8.404131 -36.672573 155 155 125 
-19.488710 -8.379510 -36.565136 155 154 125 
-19.391411 -8.364923 -36.501480 156 154 125 
-19.330717 -8.366080 -36.506535 157 156 127 
-19.273628 -8.368813 -36.518456 157 158 127 
-19.223225 -8.374475 -36.543159 156 158 127 
-19.214331 -8.398317 -36.647202 156 157 125 
-19.175045 -8.408990 -36.693775 156 158 126 
-19.132769 -8.418418 -36.734913 158 159 127 
-19.065218 -8.416752 -36.727646 160 159 127 
-19.018114 -8.424130 -36.759842 161 159 128 
-18.891935 -8.396416 -36.638905 165 161 132 
-18.779682 -8.374723 -36.544247 167 162 135 
-18.702246 -8.368463 -36.516926 166 162 139 
-18.613028 -8.356869 -36.466339 167 163 142 
-18.559736 -8.361382 -36.486034 169 165 145 
-18.477394 -8.352795 -36.448559 169 166 144 
-18.411943 -8.351810 -36.444260 169 167 142 
-18.312250 -8.335231 -36.371918 169 169 141 
-18.199039 -8.312365 -36.272137 170 170 139 
-18.112663 -8.301638 -36.225327 171 172 138 
-18.028791 -8.291987 -36.183220 171 172 138 
-17.961906 -8.290111 -36.175026 171 172 137 
-17.925493 -8.302334 -36.228367 171 171 138 
-17.843796 -8.293595 -36.190231 173 172 139 
-17.717098 -8.263805 -36.060242 174 172 140 
-17.597000 -8.236894 -35.942806 174 172 141 
-17.511105 -8.225857 -35.894646 174 171 140 
-17.456064 -8.229287 -35.909615 172 170 139 
-17.376154 -8.220976 -35.873348 171 170 138 
-17.324602 -8.226069 -35.895576 173 172 140 
-17.198164 -8.195515 -35.762245 178 178 145 
-16.983101 -8.122353 -35.442993 182 183 151 
-16.810493 -8.069037 -35.210342 182 183 153 
-16.736059 -8.062627 -35.182369 180 183 153 
-16.681335 -8.065701 -35.195782 180 184 154 
-16.639717 -8.075157 -35.237049 181 185 155 
-16.575071 -8.073467 -35.229675 182 185 155 
-16.482101 -8.057916 -35.161816 183 183 153 
-16.408888 -8.051945 -35.135761 181 181 152 
-16.258883 -8.008106 -34.944466 177 179 150 
-15.797519 -7.810009 -34.080040 172 174 146 
-20.844728 -8.690749 -37.638130 132 127 103 
-20.579594 -8.607188 -37.276245 141 136 112 
-20.416924 -8.566092 -37.098259 146 141 115 
-20.326538 -8.555157 -37.050907 147 143 116 
-20.254362 -8.551842 -37.036549 148 144 116 
-20.190847 -8.552175 -37.037987 151 146 118 
-20.086075 -8.534977 -36.963512 151 147 119 
-20.019432 -8.533924 -36.958950 150 149 121 
-19.911699 -8.515292 -36.878258 151 152 123 
-19.798449 -8.494173 -36.786797 153 155 125 
-19.731525 -8.492857 -36.781094 155 155 126 
-19.619452 -8.472035 -36.690922 155 154 125 
-19.497349 -8.446734 -36.581345 156 154 125 
-19.406483 -8.434844 -36.529850 157 156 125 
-19.352034 -8.438756 -36.546791 158 156 124 
-19.300114 -8.443800 -36.568638 157 156 124 
-19.264799 -8.456165 -36.622192 156 156 123 
-19.233446 -8.470359 -36.683659 156 156 123 
-19.196175 -8.482031 -36.734207 157 157 124 
-19.146229 -8.488161 -36.760757 159 158 127 
-19.080818 -8.487454 -36.757694 161 160 128 
-19.044228 -8.499605 -36.810318 162 161 130 
-18.907969 -8.467204 -36.669998 164 161 133 
-18.797129 -8.446008 -36.578197 166 161 136 
-18.715736 -8.437943 -36.543270 165 162 139 
-18.628775 -8.427303 -36.497192 166 163 143 
-18.568882 -8.428879 -36.504017 169 165 145 
-18.486843 -8.420377 -36.467197 169 166 144 
-18.425798 -8.421412 -36.471684 170 167 142 
-18.329372 -8.406229 -36.405926 170 170 140 
-18.212971 -8.381748 -36.299900 171 171 139 
-18.130760 -8.372886 -36.261520 170 172 140 
-18.045675 -8.362630 -36.217106 170 172 140 
-17.995043 -8.368324 -36.241764 171 172 141 
-17.979326 -8.390352 -36.337166 173 173 142 
-17.873383 -8.370281 -36.250240 173 173 142 
-17.729616 -8.332294 -36.085720 174 172 141 
-17.610123 -8.305483 -35.969612 174 171 140 
-17.541885 -8.302743 -35.957745 173 169 137 
-17.502214 -8.313552 -36.004555 171 168 135 
-17.426573 -8.307291 -35.977440 169 168 134 
-17.352091 -8.301540 -35.952534 171 172 137 
-17.207977 -8.262314 -35.782654 177 178 144 
-16.999828 -8.191946 -35.477901 181 182 149 
-16.828909 -8.139072 -35.248913 182 184 151 
-16.751080 -8.130999 -35.213947 181 184 153 
-16.695047 -8.133484 -35.224712 180 184 153 
-16.654392 -8.143508 -35.268127 181 185 154 
-16.588804 -8.141369 -35.258862 182 185 154 
-16.497040 -8.126319 -35.193684 183 184 154 
-16.416391 -8.116655 -35.151829 181 181 152 
-16.269156 -8.073873 -34.966545 177 178 149 
-15.790124 -7.865492 -34.064087 171 173 145 
-20.862717 -8.763649 -37.670609 135 130 108 
-20.602098 -8.681387 -37.317009 143 138 114 
-20.436056 -8.638585 -37.133022 146 142 117 
-20.355001 -8.631551 -37.102787 149 144 118 
-20.299107 -8.635176 -37.118366 150 146 119 
-20.225492 -8.631261 -37.101540 152 147 121 
-20.136404 -8.620697 -37.056133 151 148 123 
-20.069506 -8.619596 -37.051395 151 150 125 
-19.952759 -8.597008 -36.954304 152 153 127 
-19.816774 -8.565961 -36.820847 153 154 127 
-19.754503 -8.566678 -36.823929 153 153 126 
-19.632578 -8.541446 -36.715469 154 153 126 
-19.505812 -8.513937 -36.597221 155 154 125 
-19.422499 -8.505277 -36.559998 156 155 123 
-19.367754 -8.509111 -36.576481 157 157 122 
-19.315231 -8.513950 -36.597279 157 157 122 
-19.280260 -8.526584 -36.651581 156 156 121 
-19.245190 -8.539256 -36.706059 156 156 122 
-19.204227 -8.549391 -36.749619 157 157 124 
-19.157892 -8.557192 -36.783154 159 159 127 
-19.094902 -8.557582 -36.784828 161 161 129 
-19.058565 -8.569959 -36.838032 161 162 130 
-18.930645 -8.541100 -36.713982 162 161 132 
-18.834522 -8.526440 -36.650963 163 161 134 
-18.748154 -8.516110 -36.606564 164 162 136 
-18.660851 -8.505286 -36.560036 167 163 140 
-18.599771 -8.506380 -36.564739 169 165 142 
-18.527426 -8.502312 -36.547249 171 166 141 
-18.448915 -8.495377 -36.517441 171 167 140 
-18.358282 -8.482793 -36.463348 171 168 138 
-18.228876 -8.452144 -36.331600 170 170 138 
-18.150553 -8.445049 -36.301105 169 170 139 
-18.055958 -8.430307 -36.237740 170 171 140 
-18.030142 -8.447689 -36.312454 173 174 144 
-18.006891 -8.466398 -36.392876 173 174 145 
-17.905268 -8.448260 -36.314911 172 174 145 
-17.757317 -8.408058 -36.142101 172 173 143 
-17.626369 -8.375650 -36.002796 172 171 140 
-17.565929 -8.376636 -36.007030 170 170 137 
-17.528320 -8.388554 -36.058258 168 169 135 
-17.443903 -8.378076 -36.013218 167 168 133 
-17.378138 -8.376513 -36.006500 169 170 135 
-17.242611 -8.341191 -35.854671 176 175 141 
-17.020378 -8.263516 -35.520786 181 180 147 
-16.849394 -8.210250 -35.291821 183 182 150 
-16.779926 -8.206242 -35.274590 184 184 153 
-16.730385 -8.211984 -35.299274 183 185 154 
-16.664452 -8.209694 -35.289429 181 185 154 
-16.602880 -8.209542 -35.288776 181 185 154 
-16.512295 -8.194991 -35.226231 182 184 155 
-16.436855 -8.187876 -35.195644 180 182 154 
-16.283588 -8.141794 -34.997566 177 179 151 
-15.778682 -7.918889 -34.039402 172 175 146 
-20.871151 -8.832619 -37.685841 136 132 105 
-20.612732 -8.750689 -37.336269 143 139 113 
-20.448078 -8.708173 -37.154869 146 142 116 
-20.370501 -8.702587 -37.131039 148 144 117 
-20.312338 -8.705288 -37.142563 150 146 118 
-20.246552 -8.704727 -37.140171 150 147 121 
-20.162853 -8.696438 -37.104801 150 149 125 
-20.102976 -8.698403 -37.113186 151 151 128 
-19.978340 -8.672270 -37.001686 152 153 130 
-19.836828 -8.638619 -36.858109 152 153 129 
-19.769432 -8.637131 -36.851757 154 154 127 
-19.645590 -8.610891 -36.739803 155 154 125 
-19.519270 -8.583392 -36.622475 156 154 123 
-19.436760 -8.575041 -36.586842 156 156 121 
-19.377886 -8.577097 -36.595612 156 157 121 
-19.325907 -8.582228 -36.617508 157 158 121 
-19.298655 -8.598411 -36.686554 157 158 122 
-19.274979 -8.616299 -36.762875 157 159 123 
-19.231266 -8.625319 -36.801357 157 160 124 
-19.177397 -8.629828 -36.820602 158 161 127 
-19.109308 -8.627949 -36.812580 160 162 129 
-19.075354 -8.641519 -36.870480 160 163 129 
-18.955765 -8.616257 -36.762695 161 162 130 
-18.881227 -8.611370 -36.741848 162 161 130 
-18.780922 -8.594659 -36.670544 164 161 133 
-18.693338 -8.583676 -36.623684 168 163 137 
-18.642065 -8.589348 -36.647884 172 166 140 
-18.553429 -8.577784 -36.598545 173 167 142 
-18.472368 -8.569655 -36.563862 173 167 141 
-18.385616 -8.558822 -36.517639 171 166 140 
-18.257019 -8.528365 -36.387691 170 167 139 
-18.173500 -8.518828 -36.347000 171 168 139 
-18.072607 -8.501052 -36.271156 172 170 140 
-18.046890 -8.518637 -36.346184 175 173 144 
-18.020931 -8.536230 -36.421249 174 174 146 
-17.920408 -8.518504 -36.345619 173 174 146 
-17.777706 -8.480531 -36.183598 172 174 145 
-17.656796 -8.452722 -36.064945 172 173 143 
-17.595985 -8.453588 -36.068638 169 172 140 
-17.556181 -8.464587 -36.115574 167 170 138 
-17.468988 -8.452736 -36.065006 167 169 136 
-17.394119 -8.446785 -36.039616 170 170 137 
-17.258326 -8.411098 -35.887348 176 174 143 
-17.043558 -8.336523 -35.569164 180 178 149 
-16.868622 -8.280960 -35.332096 183 181 152 
-16.819731 -8.287093 -35.358265 186 183 156 
-16.783131 -8.299351 -35.410564 186 185 157 
-16.698698 -8.287957 -35.361950 183 184 156 
-16.628683 -8.283661 -35.343620 182 183 155 
-16.527897 -8.263948 -35.259510 181 183 155 
-16.444719 -8.252927 -35.212486 180 182 154 
-16.292454 -8.207020 -35.016617 178 179 151 
-15.771203 -7.974204 -34.023270 172 174 146 
-20.881519 -8.902466 -37.704563 136 134 102 
-20.662197 -8.836662 -37.425865 142 139 108 
-20.514320 -8.801097 -37.275234 145 141 111 
-20.404425 -8.781651 -37.192879 147 143 114 
-20.334564 -8.779367 -37.183201 148 146 117 
-20.270290 -8.779489 -37.183720 148 147 120 
-20.183186 -8.769691 -37.142220 149 150 124 
-20.122435 -8.771317 -37.149109 150 152 127 
-19.997618 -8.744939 -37.037388 152 154 128 
-19.856960 -8.711441 -36.895512 153 154 127 
-19.786150 -8.708467 -36.882919 154 154 125 
-19.656942 -8.679689 -36.761036 155 155 124 
-19.527227 -8.650498 -36.637405 156 155 123 
-19.445185 -8.642304 -36.602699 157 156 121 
-19.387726 -8.645019 -36.614197 156 156 120 
-19.340427 -8.652296 -36.645020 158 158 123 
-19.353712 -8.686814 -36.791214 160 161 125 
-19.306864 -8.694482 -36.823685 159 161 125 
-19.256880 -8.700783 -36.850376 159 160 126 
-19.189510 -8.699244 -36.843861 159 161 127 
-19.129711 -8.701139 -36.851883 159 162 127 
-19.090540 -8.712461 -36.899834 160 162 128 
-18.985458 -8.693678 -36.820282 163 162 128 
-18.903545 -8.685413 -36.785278 164 161 129 
-18.811985 -8.672645 -36.731197 166 162 131 
-18.722208 -8.660613 -36.680244 170 163 135 
-18.665852 -8.664013 -36.694645 172 165 138 
-18.568304 -8.648252 -36.627888 174 167 142 
-18.504868 -8.648323 -36.628189 173 167 144 
-18.457747 -8.656047 -36.660904 172 167 145 
-18.328861 -8.625347 -36.530880 172 168 144 
-18.201500 -8.595153 -36.403000 172 167 142 
-18.089174 -8.571874 -36.304405 172 168 141 
-18.063976 -8.589863 -36.380596 174 171 144 
-18.037357 -8.607301 -36.454449 175 173 145 
-17.935867 -8.589007 -36.376972 174 174 145 
-17.800041 -8.554084 -36.229061 174 175 146 
-17.683762 -8.528338 -36.120022 173 174 146 
-17.619894 -8.527779 -36.117649 170 172 143 
-17.572863 -8.535391 -36.149891 167 170 140 
-17.494352 -8.527713 -36.117371 168 169 139 
-17.419054 -8.521551 -36.091274 171 171 140 
-17.283670 -8.485846 -35.940052 177 175 146 
-17.084885 -8.418639 -35.655411 183 179 152 
-16.893221 -8.354465 -35.383621 185 181 154 
-16.835754 -8.356433 -35.391953 187 183 157 
-16.809645 -8.374035 -35.466503 188 184 158 
-16.722225 -8.361113 -35.411770 185 184 156 
-16.646158 -8.353791 -35.380764 183 183 154 
-16.551929 -8.337268 -35.310783 182 182 153 
-16.478554 -8.331165 -35.284935 180 180 151 
-16.318890 -8.281228 -35.073437 177 177 148 
-20.887686 -8.970573 -37.715698 137 135 103 
-20.674265 -8.906837 -37.447723 141 139 107 
-20.529421 -8.872336 -37.302670 144 142 111 
-20.420626 -8.853246 -37.222408 146 144 114 
-20.367537 -8.858262 -37.243496 145 145 117 
-20.294609 -8.854654 -37.228329 146 148 120 
-20.203991 -8.843281 -37.180508 148 151 123 
-20.146914 -8.846561 -37.194302 150 154 126 
-20.011786 -8.815481 -37.063629 152 155 127 
-19.868269 -8.780493 -36.916523 153 155 127 
-19.799425 -8.778386 -36.907665 155 155 125 
-19.672495 -8.750428 -36.790123 156 155 126 
-19.559319 -8.728426 -36.697617 158 156 127 
-19.486969 -8.724558 -36.681355 158 156 126 
-19.457855 -8.740086 -36.746635 158 157 126 
-19.390600 -8.738526 -36.740082 160 158 128 
-19.391787 -8.767903 -36.863594 161 160 129 
-19.357561 -8.781410 -36.920380 161 160 129 
-19.286694 -8.778329 -36.907425 160 160 129 
-19.209719 -8.772438 -36.882660 160 161 129 
-19.156090 -8.777205 -36.902699 161 162 129 
-19.112183 -8.786473 -36.941666 162 162 129 
-19.017878 -8.772556 -36.883156 165 161 130 
-18.951904 -8.771658 -36.879379 168 161 130 
-18.845604 -8.752026 -36.796837 169 162 132 
-18.745354 -8.735080 -36.725590 171 163 133 
-18.692310 -8.740090 -36.746658 171 164 136 
-18.602074 -8.727685 -36.694500 172 166 140 
-18.522491 -8.720211 -36.663074 172 167 143 
-18.476395 -8.728504 -36.697945 173 168 146 
-18.387342 -8.716491 -36.647438 174 170 148 
-18.242355 -8.677788 -36.484711 173 168 146 
-18.104134 -8.642043 -36.334427 172 168 143 
-18.076426 -8.658987 -36.405666 173 170 144 
-18.045761 -8.674628 -36.471432 175 173 145 
-17.949165 -8.658577 -36.403942 175 174 145 
-17.818729 -8.626028 -36.267097 176 175 146 
-17.705713 -8.601712 -36.164864 175 174 148 
-17.642246 -8.601380 -36.163467 172 171 145 
-17.604910 -8.613831 -36.215813 169 170 143 
-17.526659 -8.606281 -36.184071 169 171 142 
-17.444290 -8.596646 -36.143562 172 172 143 
-17.297668 -8.555164 -35.969158 178 176 147 
-17.100065 -8.488076 -35.687092 184 180 151 
-16.907410 -8.422964 -35.413338 186 181 153 
-16.858452 -8.429226 -35.439663 187 182 155 
-16.848278 -8.454997 -35.548016 187 183 155 
-16.755854 -8.439529 -35.482983 185 182 154 
-16.671053 -8.427801 -35.433678 184 183 152 
-16.576508 -8.411043 -35.363216 181 181 151 
-16.494961 -8.400780 -35.320065 179 179 150 
-16.324844 -8.345163 -35.086235 177 177 148 
-20.921148 -9.050529 -37.776119 135 136 108 
-20.739185 -9.000024 -37.565315 139 140 112 
-20.608746 -8.971630 -37.446804 143 144 116 
-20.487501 -8.947073 -37.344303 144 146 118 
-20.410263 -8.941639 -37.321621 143 146 120 
-20.330780 -8.935184 -37.294678 145 148 123 
-20.241766 -8.924485 -37.250023 148 152 126 
-20.165066 -8.919164 -37.227814 150 155 127 
-20.026247 -8.886245 -37.090412 152 156 128 
-19.881645 -8.850539 -36.941380 152 156 127 
-19.814568 -8.849225 -36.935894 154 154 126 
-19.687860 -8.821184 -36.818855 156 154 128 
-19.578104 -8.800581 -36.732861 159 155 130 
-19.534365 -8.809616 -36.770569 160 157 131 
-19.539028 -8.840610 -36.899937 161 158 132 
-19.420671 -8.815963 -36.797062 161 158 132 
-19.413731 -8.841897 -36.905312 161 158 131 
-19.386950 -8.858937 -36.976433 161 159 132 
-19.309557 -8.852887 -36.951180 161 161 131 
-19.237633 -8.849312 -36.936256 162 162 131 
-19.194963 -8.859214 -36.977589 163 163 132 
-19.182259 -8.883060 -37.077118 165 163 133 
-19.080458 -8.865667 -37.004524 167 162 134 
-18.999243 -8.857756 -36.971500 168 161 134 
-18.860008 -8.822647 -36.824963 169 162 133 
-18.770870 -8.810816 -36.775581 170 162 135 
-18.702408 -8.808642 -36.766506 171 164 136 
-18.620300 -8.800005 -36.730453 171 166 139 
-18.537676 -8.791063 -36.693130 172 167 142 
-18.493240 -8.800231 -36.731400 173 169 145 
-18.395828 -8.784167 -36.664352 174 170 148 
-18.276312 -8.757400 -36.552624 174 170 149 
-18.146086 -8.725295 -36.418625 173 170 147 
-18.101753 -8.734412 -36.456676 174 170 147 
-18.062933 -8.746263 -36.506142 174 172 146 
-17.965107 -8.729524 -36.436272 175 173 146 
-17.833569 -8.696228 -36.297298 176 174 147 
-17.719784 -8.671384 -36.193600 176 173 147 
-17.655790 -8.670815 -36.191227 173 170 144 
-17.630592 -8.689363 -36.268650 171 168 142 
-17.554474 -8.682858 -36.241493 172 170 143 
-17.466984 -8.670661 -36.190586 175 172 143 
-17.315323 -8.626407 -36.005871 179 176 145 
-17.178164 -8.589082 -35.850079 182 178 146 
-17.098135 -8.580154 -35.812820 183 179 146 
-17.000692 -8.562392 -35.738682 184 181 149 
-16.913795 -8.549830 -35.686249 186 181 151 
-16.777817 -8.512275 -35.529491 186 181 153 
-16.705221 -8.506718 -35.506302 185 181 154 
-16.609457 -8.489278 -35.433506 182 181 154 
-16.553669 -8.492217 -35.445774 181 181 154 
-16.350658 -8.419369 -35.141712 179 178 151 
-20.939728 -9.124207 -37.809666 135 138 111 
-20.763147 -9.075715 -37.608719 139 142 114 
-20.639566 -9.050157 -37.502808 141 146 117 
-20.521988 -9.027077 -37.407169 143 149 118 
-20.459091 -9.027980 -37.410908 143 150 120 
-20.365618 -9.015353 -37.358585 144 150 121 
-20.290823 -9.010941 -37.340302 146 153 123 
-20.191008 -8.995353 -37.275707 149 155 125 
-20.057795 -8.964738 -37.148842 151 155 125 
-19.908581 -8.926751 -36.991428 152 155 124 
-19.831484 -8.920959 -36.967426 154 154 124 
-19.709858 -8.895034 -36.859997 156 153 125 
-19.603386 -8.875800 -36.780293 159 154 126 
-19.563015 -8.886468 -36.824497 161 156 127 
-19.567661 -8.917721 -36.954006 162 158 128 
-19.450727 -8.893589 -36.854008 160 158 128 
-19.440866 -8.918417 -36.956894 160 159 128 
-19.419054 -8.937909 -37.037666 160 160 129 
-19.340710 -8.931424 -37.010796 160 161 128 
-19.268173 -8.927587 -36.994892 161 162 128 
-19.224785 -8.937274 -37.035038 163 163 129 
-19.196486 -8.954065 -37.104614 165 163 132 
-19.095940 -8.937157 -37.034550 166 162 134 
-19.019033 -8.931235 -37.010010 167 162 135 
-18.901697 -8.906223 -36.906364 167 162 136 
-18.803263 -8.889977 -36.839043 168 163 137 
-18.745945 -8.893127 -36.852097 169 164 139 
-18.638874 -8.872615 -36.767094 170 165 139 
-18.558430 -8.864680 -36.734211 171 166 141 
-18.507950 -8.871052 -36.760616 174 169 145 
-18.419147 -8.859036 -36.710827 176 171 149 
-18.311148 -8.837672 -36.622295 175 172 152 
-18.200562 -8.814906 -36.527958 174 171 152 
-18.129221 -8.811055 -36.512001 173 171 150 
-18.092203 -8.823916 -36.565292 173 170 148 
-17.987682 -8.803830 -36.482059 175 171 147 
-17.854330 -8.769442 -36.339558 177 172 147 
-17.741533 -8.744941 -36.238026 176 171 145 
-17.684822 -8.748009 -36.250740 173 168 141 
-17.660627 -8.767240 -36.330433 172 167 139 
-17.583212 -8.760095 -36.300827 173 169 140 
-17.484280 -8.742140 -36.226421 176 172 141 
-17.339964 -8.701282 -36.057110 179 176 142 
-17.239967 -8.682447 -35.979061 181 178 141 
-17.142038 -8.664521 -35.904778 182 179 142 
-17.051022 -8.649971 -35.844482 184 180 145 
-16.939754 -8.625003 -35.741020 186 182 149 
-16.797089 -8.583806 -35.570305 186 182 152 
-16.723280 -8.577623 -35.544685 186 182 154 
-16.657616 -8.575587 -35.536243 185 183 156 
-16.565964 -8.560108 -35.472099 182 181 154 
-16.360287 -8.485373 -35.162411 178 178 150 
-20.949848 -9.194290 -37.827938 136 139 112 
-20.777597 -9.147369 -37.634892 139 143 115 
-20.656610 -9.122793 -37.533779 140 146 116 
-20.539682 -9.099859 -37.439423 142 149 117 
-20.477053 -9.100912 -37.443756 143 151 119 
-20.384600 -9.088675 -37.393406 144 151 120 
-20.318483 -9.088140 -37.391205 147 153 121 
-20.237103 -9.080751 -37.360806 149 153 122 
-20.111191 -9.053269 -37.247734 150 153 121 
-19.974218 -9.020615 -37.113388 152 153 119 
-19.889900 -9.011605 -37.076321 154 153 119 
-19.810688 -9.004858 -37.048561 156 153 118 
-19.734507 -8.999450 -37.026306 157 153 118 
-19.718155 -9.021378 -37.116524 159 154 119 
-19.647068 -9.018327 -37.103970 160 156 122 
-19.493305 -8.977180 -36.934685 160 158 123 
-19.478903 -9.000154 -37.029202 160 160 124 
-19.464537 -9.023295 -37.124416 160 161 125 
-19.372566 -9.010496 -37.071754 159 161 125 
-19.301382 -9.007312 -37.058655 160 161 125 
-19.247368 -9.012145 -37.078541 163 162 127 
-19.233772 -9.036000 -37.176685 164 162 129 
-19.122061 -9.013766 -37.085209 165 162 132 
-19.039402 -9.005122 -37.049644 166 163 134 
-18.919422 -8.978709 -36.940971 167 163 135 
-18.818043 -8.960973 -36.868000 168 164 137 
