ply
format ascii 1.0
element vertex 1225
property float x
property float y
property float z
property uchar red
property uchar green
property uchar blue
end_header
-6.965573 1.282007 -24.614540 24 23 4 
-6.927509 1.282872 -24.631144 26 25 7 
-6.886338 1.283169 -24.636837 27 26 7 
-6.849135 1.284213 -24.656887 25 25 6 
-6.812003 1.285284 -24.677444 24 24 6 
-6.772685 1.285953 -24.690292 24 24 6 
-6.737395 1.287400 -24.718084 23 23 5 
-6.701263 1.288705 -24.743126 22 22 4 
-6.659800 1.288993 -24.748674 19 21 3 
-6.613255 1.288296 -24.735291 21 22 5 
-6.571820 1.288592 -24.740971 23 23 7 
-6.534867 1.289776 -24.763706 24 25 9 
-6.498052 1.291004 -24.787271 25 25 10 
-6.452613 1.290523 -24.778034 24 24 9 
-6.413954 1.291400 -24.794884 23 23 8 
-6.375136 1.292257 -24.811342 21 22 7 
-6.328587 1.291548 -24.797729 23 23 8 
-6.284222 1.291278 -24.792547 25 24 10 
-6.252533 1.293628 -24.837648 24 24 10 
-6.205681 1.292850 -24.822723 22 22 9 
-6.161416 1.292605 -24.818012 20 20 7 
-6.112205 1.291311 -24.793171 22 21 10 
-6.071029 1.291708 -24.800798 22 22 11 
-6.032683 1.292718 -24.820183 21 20 11 
-5.986920 1.292141 -24.809107 21 22 13 
-5.947381 1.292909 -24.823853 20 22 13 
-5.909372 1.294023 -24.845243 21 22 12 
-5.866118 1.293997 -24.844734 22 24 12 
-5.825224 1.294494 -24.854288 21 23 10 
-5.786739 1.295539 -24.874340 20 22 7 
-5.747560 1.296442 -24.891685 19 21 6 
-5.708484 1.297383 -24.909750 20 22 6 
-5.666830 1.297747 -24.916750 21 23 7 
-5.628799 1.298954 -24.939913 20 22 5 
-5.581968 1.298132 -24.924137 20 22 4 
-5.537592 1.297873 -24.919167 20 21 5 
-5.499431 1.299078 -24.942299 21 22 6 
-5.454604 1.298715 -24.935335 21 21 6 
-5.418371 1.300409 -24.967854 22 21 6 
-5.373387 1.300013 -24.960249 24 21 7 
-5.327315 1.299345 -24.947428 24 20 7 
-5.286752 1.300021 -24.960403 21 18 3 
-5.244191 1.300213 -24.964081 18 17 0 
-5.205467 1.301367 -24.986240 17 16 0 
-5.164582 1.301996 -24.998314 18 16 0 
-5.123505 1.302586 -25.009651 20 18 1 
-5.084625 1.303750 -25.032000 22 20 4 
-5.053282 1.306883 -25.092157 27 24 10 
-5.066807 1.321776 -25.378092 33 29 15 
-5.075620 1.335689 -25.645237 39 35 23 
-5.049385 1.340545 -25.738457 44 40 28 
-5.020622 1.344809 -25.820341 47 42 32 
-5.006902 1.353217 -25.981764 49 45 36 
-5.005806 1.365220 -26.212221 53 48 39 
-4.970676 1.368076 -26.267057 55 52 43 
-4.930008 1.369447 -26.293377 57 55 44 
-4.893332 1.371962 -26.341673 58 56 45 
-4.852308 1.373295 -26.367260 61 59 46 
-4.830755 1.380216 -26.500141 64 63 48 
-4.788070 1.381174 -26.518539 68 65 51 
-4.748245 1.382984 -26.553291 71 68 52 
-4.691043 1.379718 -26.490595 76 71 54 
-4.658087 1.383590 -26.564930 81 75 56 
-4.624550 1.387365 -26.637407 83 77 56 
-4.562448 1.382560 -26.545149 85 78 55 
-4.511278 1.381003 -26.515265 88 79 55 
-4.459313 1.379169 -26.480043 91 82 58 
-4.421377 1.381680 -26.528263 92 85 62 
-4.367475 1.379202 -26.480688 93 89 64 
-4.291052 1.369485 -26.294109 95 92 66 
-4.223445 1.362402 -26.158112 95 94 68 
-4.185524 1.364845 -26.205019 95 95 69 
-4.124992 1.359887 -26.109838 98 97 73 
-4.067511 1.355837 -26.032066 100 98 76 
-4.010931 1.351999 -25.958384 102 100 79 
-3.954831 1.348238 -25.886166 104 101 83 
-3.891552 1.341914 -25.764755 106 103 86 
-3.836413 1.338284 -25.695044 108 104 86 
-3.785806 1.336167 -25.654402 109 104 84 
-3.747160 1.338271 -25.694811 109 103 82 
-3.684019 1.331573 -25.566202 111 104 81 
-3.606506 1.319454 -25.333509 115 106 82 
-3.555520 1.316859 -25.283699 117 107 83 
-10.377281 1.170977 -23.258032 73 72 55 
-9.821802 1.112626 -22.099054 46 47 31 
-10.154843 1.154865 -22.938000 18 20 7 
-10.384651 1.185649 -23.549444 9 11 0 
-10.357511 1.187225 -23.580734 6 5 0 
-10.311728 1.186667 -23.569664 3 2 0 
-10.274504 1.187094 -23.578144 3 1 0 
-10.234104 1.187156 -23.579376 4 1 0 
-10.191876 1.187006 -23.576389 6 2 0 
-10.153122 1.187260 -23.581446 7 3 0 
-10.114634 1.187548 -23.587160 8 3 0 
-10.074409 1.187634 -23.588860 8 3 0 
-10.037090 1.188064 -23.597404 8 2 0 
-9.997222 1.188194 -23.600000 8 3 0 
-9.955600 1.188117 -23.598459 9 5 0 
-9.915511 1.188222 -23.600555 9 5 0 
-9.876216 1.188424 -23.604567 8 5 0 
-9.839118 1.188893 -23.613884 7 4 0 
-9.801116 1.189257 -23.621101 7 3 0 
-9.762900 1.189597 -23.627859 7 3 0 
-9.723252 1.189765 -23.631195 7 3 0 
-9.685555 1.190174 -23.639318 7 3 0 
-9.645964 1.190353 -23.642872 9 4 0 
-9.607225 1.190639 -23.648554 10 5 0 
-9.568840 1.190971 -23.655159 9 5 0 
-9.531775 1.191472 -23.665096 9 6 0 
-9.492992 1.191761 -23.670839 9 8 0 
-9.454941 1.192145 -23.678459 8 9 0 
-9.418846 1.192780 -23.691071 6 8 0 
-9.381307 1.193236 -23.700142 5 6 0 
-9.344312 1.193767 -23.710676 5 5 0 
-9.306602 1.194210 -23.719481 7 6 0 
-9.271509 1.194994 -23.735062 9 7 0 
-9.234931 1.195594 -23.746967 7 8 0 
-9.198481 1.196215 -23.759304 6 7 0 
-9.160957 1.196702 -23.768969 6 7 0 
-9.123141 1.197154 -23.777962 7 7 0 
-9.084766 1.197537 -23.785570 7 8 0 
-9.046443 1.197931 -23.793385 7 8 0 
-9.007779 1.198283 -23.800371 7 8 0 
-8.970812 1.198864 -23.811926 8 8 0 
-8.933535 1.199410 -23.822758 8 8 0 
-8.897299 1.200101 -23.836485 9 8 0 
-8.863642 1.201148 -23.857279 10 8 0 
-8.824971 1.201522 -23.864712 12 7 0 
-8.787739 1.202096 -23.876122 13 7 0 
-8.751548 1.202819 -23.890482 13 7 0 
-8.715959 1.203632 -23.906628 11 6 0 
-8.678993 1.204262 -23.919138 11 7 0 
-8.646255 1.205487 -23.943474 11 8 0 
-8.611877 1.206495 -23.963484 12 8 0 
-8.571402 1.206654 -23.966637 13 7 0 
-8.532309 1.207009 -23.973705 12 7 0 
-8.497458 1.207972 -23.992821 12 6 0 
-8.462372 1.208910 -24.011459 13 7 0 
-8.425321 1.209576 -24.024677 13 7 0 
-8.390511 1.210571 -24.044449 12 7 0 
-8.356155 1.211643 -24.065727 10 8 0 
-8.319895 1.212447 -24.081705 10 9 0 
-8.279705 1.212684 -24.086416 12 9 0 
-8.241453 1.213209 -24.096838 13 11 1 
-8.205798 1.214123 -24.115000 14 12 2 
-8.167869 1.214709 -24.126627 15 13 2 
-8.127421 1.214924 -24.130899 14 14 1 
-8.088793 1.215414 -24.140646 15 15 2 
-8.053358 1.216393 -24.160074 14 15 1 
-8.019483 1.217618 -24.184408 13 14 1 
-7.983757 1.218573 -24.203390 14 14 0 
-7.946906 1.219367 -24.219143 14 13 0 
-7.911105 1.220330 -24.238277 14 13 0 
-7.872470 1.220864 -24.248890 16 13 1 
-7.838088 1.222067 -24.272787 17 14 2 
-7.800532 1.222786 -24.287062 18 13 1 
-7.762436 1.223428 -24.299801 19 13 2 
-7.720981 1.223544 -24.302105 20 14 2 
-7.682296 1.224102 -24.313200 19 14 2 
-7.646803 1.225178 -24.334579 18 16 1 
-7.612310 1.226428 -24.359392 18 17 3 
-7.574889 1.227217 -24.375063 19 18 7 
-7.536732 1.227895 -24.388525 21 20 11 
-7.501867 1.229119 -24.412855 21 20 10 
-7.463058 1.229709 -24.424555 19 19 6 
-7.426550 1.230685 -24.443960 19 19 2 
-7.389411 1.231568 -24.461498 18 18 0 
-7.350006 1.232082 -24.471697 19 19 0 
-7.311000 1.232669 -24.483349 19 19 0 
-7.271665 1.233206 -24.494028 19 19 0 
-7.232119 1.233714 -24.504118 19 20 1 
-7.194369 1.234537 -24.520454 20 21 2 
-7.151877 1.234550 -24.520721 22 22 3 
-7.111377 1.234910 -24.527863 23 23 5 
-7.070646 1.235233 -24.534290 23 23 5 
-7.037064 1.236817 -24.565750 22 22 5 
-7.000199 1.237840 -24.586065 23 23 3 
-6.963145 1.238842 -24.605961 24 25 4 
-6.924974 1.239656 -24.622131 25 26 6 
-6.883471 1.239880 -24.626577 25 26 7 
-6.844734 1.240608 -24.641045 25 26 9 
-6.803045 1.240807 -24.644993 24 26 11 
-6.764593 1.241603 -24.660795 24 26 11 
-6.725809 1.242347 -24.675577 23 24 11 
-6.682961 1.242345 -24.675550 21 24 11 
-6.646575 1.243553 -24.699532 19 23 9 
-6.609077 1.244566 -24.719666 19 23 7 
-6.569801 1.245256 -24.733368 22 23 7 
-6.531613 1.246163 -24.751377 24 24 7 
-6.492548 1.246913 -24.766275 24 24 7 
-6.450248 1.247048 -24.768953 24 24 8 
-6.410924 1.247764 -24.783171 24 24 9 
-6.364568 1.247111 -24.770210 24 25 10 
-6.322021 1.247201 -24.771999 25 24 11 
-6.281852 1.247765 -24.783197 25 23 10 
-6.248731 1.249746 -24.822544 24 23 8 
-6.202185 1.249051 -24.808739 22 22 7 
-6.156672 1.248556 -24.798904 22 22 7 
-6.108499 1.247510 -24.778137 23 23 9 
-6.068590 1.248150 -24.790836 22 23 10 
-6.029629 1.248995 -24.807617 21 22 11 
-5.984594 1.248584 -24.799467 22 23 13 
-5.943411 1.248978 -24.807281 22 24 14 
-5.906025 1.250180 -24.831171 22 24 13 
-5.864357 1.250488 -24.837275 22 24 11 
-5.821661 1.250579 -24.839087 23 24 9 
-5.781381 1.251194 -24.851309 23 23 7 
-5.739306 1.251428 -24.855942 22 23 8 
-5.703801 1.253108 -24.889313 22 22 8 
-5.664442 1.253960 -24.906248 21 22 7 
-5.625956 1.255021 -24.927313 20 23 6 
-5.579208 1.254241 -24.911812 20 23 5 
-5.534972 1.254017 -24.907375 20 22 6 
-5.496660 1.255143 -24.929735 20 21 6 
-5.451746 1.254767 -24.922268 20 20 6 
-5.413821 1.256006 -24.946888 20 20 6 
-5.369162 1.255691 -24.940624 22 22 7 
-5.321833 1.254741 -24.921755 22 21 5 
-5.283147 1.255830 -24.943382 20 19 2 
-5.241476 1.256222 -24.951159 17 17 0 
-5.202144 1.257185 -24.970289 16 15 0 
-5.161710 1.257896 -24.984411 17 16 0 
-5.120780 1.258497 -24.996349 19 18 1 
-5.082284 1.259712 -25.020475 22 20 5 
-5.050628 1.262657 -25.078981 27 25 11 
-5.062247 1.276567 -25.355253 33 30 17 
-5.070917 1.289970 -25.621477 39 36 24 
-5.043746 1.294412 -25.709711 43 40 29 
-5.012698 1.297931 -25.779589 45 42 31 
-4.987834 1.303128 -25.882816 47 43 33 
-4.963624 1.308592 -25.991344 49 46 35 
-4.948041 1.316451 -26.147448 53 51 39 
-4.918025 1.320581 -26.229464 55 54 42 
-4.887713 1.324707 -26.311428 58 57 45 
-4.843500 1.325109 -26.319397 61 60 48 
-4.814135 1.329618 -26.408970 65 64 51 
-4.780037 1.332895 -26.474052 67 65 52 
-4.738425 1.334120 -26.498375 69 67 53 
-4.676639 1.329633 -26.409256 75 72 57 
-4.649465 1.334995 -26.515759 80 76 57 
-4.616940 1.338913 -26.593575 82 77 57 
-4.556270 1.334665 -26.509207 84 78 56 
-4.500343 1.331734 -26.450994 88 80 58 
-4.445534 1.329077 -26.398226 91 84 61 
-4.411294 1.332579 -26.467768 91 86 64 
-4.358830 1.330590 -26.428278 92 89 66 
-4.280412 1.320553 -26.228909 95 92 69 
-4.207261 1.311942 -26.057877 96 93 72 
-4.159846 1.311256 -26.044250 97 95 74 
-4.108967 1.309451 -26.008408 99 97 77 
-4.051727 1.305556 -25.931051 101 99 80 
-4.003376 1.304471 -25.909492 102 101 81 
-3.947368 1.300837 -25.837317 104 102 85 
-3.885829 1.295276 -25.726868 106 103 88 
-3.830998 1.291848 -25.658779 108 104 88 
-3.776672 1.288512 -25.592505 109 105 87 
-3.734904 1.289431 -25.610769 110 105 85 
-3.676669 1.284619 -25.515198 112 105 83 
-3.603457 1.274393 -25.312090 115 106 83 
-3.553576 1.272268 -25.269875 117 107 83 
-10.364961 1.129256 -23.230417 72 72 54 
-9.821785 1.074258 -22.099016 44 46 29 
-10.166383 1.116309 -22.964064 17 19 6 
-10.384199 1.144715 -23.548420 10 11 0 
-10.355854 1.146102 -23.576965 8 7 0 
-10.310879 1.145653 -23.567722 5 3 0 
-10.273280 1.146023 -23.575336 5 3 0 
-10.232678 1.146060 -23.576090 6 3 0 
-10.191138 1.145991 -23.574682 6 3 0 
-10.152392 1.146238 -23.579750 6 3 0 
-10.113981 1.146524 -23.585642 7 3 0 
-10.073312 1.146556 -23.586292 6 2 0 
-10.036149 1.146988 -23.595190 6 2 0 
-9.996636 1.147155 -23.598618 7 3 0 
-9.954915 1.147068 -23.596834 8 4 0 
-9.914825 1.147170 -23.598925 7 5 0 
-9.875590 1.147372 -23.603071 7 6 0 
-9.838501 1.147825 -23.612404 7 5 0 
-9.800280 1.148150 -23.619083 6 4 0 
-9.762042 1.148476 -23.625782 6 4 0 
-9.722536 1.148654 -23.629454 7 4 0 
-9.684845 1.149049 -23.637589 7 4 0 
-9.644948 1.149185 -23.640383 7 4 0 
-9.606112 1.149449 -23.645813 8 4 0 
-9.568462 1.149858 -23.654224 9 5 0 
-9.531269 1.150326 -23.663841 10 5 0 
-9.492323 1.150585 -23.669168 9 6 0 
-9.454300 1.150958 -23.676855 8 8 0 
-9.417844 1.151527 -23.688551 8 8 0 
-9.380284 1.151965 -23.697561 7 7 0 
-9.343363 1.152485 -23.708269 7 4 0 
-9.305326 1.152872 -23.716230 7 3 0 
-9.270185 1.153623 -23.731674 8 4 0 
-9.233916 1.154240 -23.744356 8 6 0 
-9.197799 1.154881 -23.757544 7 7 0 
-9.159838 1.155295 -23.766066 8 7 0 
-9.122341 1.155772 -23.775875 8 8 0 
-9.083824 1.156123 -23.783104 9 8 0 
-9.045330 1.156481 -23.790457 9 8 0 
-9.006577 1.156808 -23.797194 9 8 0 
-8.969998 1.157419 -23.809765 9 8 0 
-8.932842 1.157961 -23.820913 9 8 0 
-8.896862 1.158661 -23.835314 9 8 0 
-8.863160 1.159666 -23.855984 10 8 0 
-8.824078 1.159973 -23.862295 13 8 0 
-8.786818 1.160523 -23.873617 14 8 0 
-8.750789 1.161242 -23.888409 13 8 0 
-8.714056 1.161874 -23.901409 13 9 0 
-8.677904 1.162590 -23.916138 12 9 0 
-8.645146 1.163770 -23.940407 11 10 0 
-8.611073 1.164783 -23.961246 12 9 0 
-8.570630 1.164940 -23.964481 12 7 0 
-8.531425 1.165268 -23.971222 12 6 0 
-8.496456 1.166180 -23.989994 13 6 0 
-8.461288 1.167074 -24.008387 14 7 0 
-8.424161 1.167706 -24.021370 14 8 0 
-8.389598 1.168700 -24.041832 12 8 0 
-8.354939 1.169691 -24.062223 11 9 0 
-8.318667 1.170466 -24.078154 11 10 0 
-8.278983 1.170765 -24.084314 12 9 0 
-8.240038 1.171173 -24.092701 12 10 0 
-8.203096 1.171871 -24.107059 12 10 0 
-8.163711 1.172225 -24.114346 12 10 0 
-8.126053 1.172832 -24.126839 13 13 0 
-8.087323 1.173290 -24.136259 15 15 0 
-8.052232 1.174284 -24.156694 14 14 0 
-8.018336 1.175463 -24.180952 13 13 0 
-7.983092 1.176456 -24.201374 14 14 0 
-7.945733 1.177146 -24.215567 15 14 0 
-7.909663 1.178035 -24.233860 15 14 0 
-7.870941 1.178537 -24.244181 15 13 0 
-7.834636 1.179408 -24.262098 15 12 0 
-7.798289 1.180282 -24.280079 16 12 0 
-7.759971 1.180865 -24.292082 17 13 0 
-7.718512 1.180974 -24.294333 18 14 0 
-7.680437 1.181606 -24.307316 19 15 0 
-7.646000 1.182807 -24.332022 18 16 1 
-7.611143 1.183956 -24.355658 19 17 3 
-7.573585 1.184695 -24.370865 20 18 6 
-7.534285 1.185168 -24.380608 21 19 8 
-7.496408 1.185872 -24.395090 19 18 6 
-7.459740 1.186777 -24.413692 18 18 3 
-7.424516 1.187923 -24.437263 18 18 1 
-7.387850 1.188849 -24.456331 18 19 0 
-7.348388 1.189334 -24.466309 18 19 0 
-7.309367 1.189897 -24.477879 18 19 0 
-7.270035 1.190415 -24.488541 18 19 0 
-7.230031 1.190829 -24.497044 18 19 0 
-7.190313 1.191295 -24.506630 18 19 0 
-7.148763 1.191460 -24.510044 20 20 2 
-7.109614 1.192031 -24.521782 22 22 6 
-7.068589 1.192292 -24.527153 23 23 7 
-7.033828 1.193619 -24.554453 23 24 7 
-6.995014 1.194271 -24.567854 24 24 7 
-6.957685 1.195185 -24.586666 25 25 8 
-6.920633 1.196159 -24.606695 25 25 9 
-6.879049 1.196356 -24.610760 25 25 10 
-6.840212 1.197037 -24.624765 26 27 12 
-6.797840 1.197104 -24.626137 26 28 14 
-6.761215 1.198190 -24.648481 25 27 14 
-6.722795 1.198970 -24.664520 23 26 13 
-6.678142 1.198641 -24.657755 24 26 13 
-6.637884 1.199102 -24.667231 23 25 12 
-6.603655 1.200665 -24.699387 22 24 9 
-6.567841 1.201958 -24.725988 23 23 7 
-6.528468 1.202612 -24.739456 24 22 6 
-6.489101 1.203277 -24.753128 25 22 7 
-6.447173 1.203472 -24.757145 25 23 9 
-6.404387 1.203509 -24.757900 26 25 12 
-6.358859 1.203027 -24.747990 26 26 13 
-6.319499 1.203714 -24.762119 26 24 12 
-6.279122 1.204215 -24.772427 25 22 9 
-6.242030 1.205357 -24.795925 23 20 6 
-6.198110 1.205188 -24.792440 23 21 5 
-6.154440 1.205065 -24.789911 23 22 7 
-6.106083 1.204016 -24.768335 24 23 8 
-6.065554 1.204507 -24.778435 24 23 10 
-6.024558 1.204912 -24.786755 24 23 12 
-5.981407 1.204888 -24.786264 24 23 12 
-5.936992 1.204607 -24.780489 23 23 10 
-5.899323 1.205701 -24.802992 23 23 9 
-5.857452 1.205946 -24.808035 24 24 7 
-5.817006 1.206490 -24.819223 24 24 6 
-5.778408 1.207429 -24.838531 24 24 6 
-5.735487 1.207471 -24.839405 23 23 6 
-5.700519 1.209201 -24.874990 22 22 6 
-5.662114 1.210223 -24.896013 21 22 6 
-5.623195 1.211150 -24.915081 20 22 5 
-5.576924 1.210495 -24.901615 20 23 6 
-5.531095 1.209927 -24.889925 21 23 8 
-5.490881 1.210588 -24.903524 21 22 9 
-5.444644 1.209921 -24.889801 21 22 9 
-5.407787 1.211344 -24.919081 21 22 8 
-5.366638 1.211821 -24.928898 21 22 7 
-5.319404 1.210921 -24.910381 21 21 5 
-5.279192 1.211618 -24.924709 18 19 2 
-5.238797 1.212283 -24.938404 16 17 0 
-5.199370 1.213186 -24.956976 16 16 0 
-5.158886 1.213856 -24.970745 17 17 0 
-5.118104 1.214465 -24.983288 19 19 1 
-5.078866 1.215455 -25.003649 22 22 5 
-5.047994 1.218481 -25.065901 26 25 10 
-5.058630 1.231667 -25.337141 32 31 16 
-5.065621 1.244188 -25.594719 38 37 23 
-5.032449 1.246979 -25.652128 43 39 26 
-4.999133 1.249783 -25.709827 45 40 28 
-4.955766 1.250103 -25.716408 46 41 28 
-4.937341 1.256778 -25.853714 47 44 31 
-4.917786 1.263284 -25.987566 51 48 35 
-4.905660 1.271838 -26.163517 55 53 39 
-4.878036 1.276496 -26.259336 59 56 43 
-4.832713 1.276566 -26.260780 63 60 46 
-4.806602 1.281760 -26.367643 66 63 51 
-4.769252 1.284029 -26.414322 67 64 54 
-4.706682 1.279486 -26.320860 71 68 58 
-4.656325 1.278207 -26.294540 76 73 61 
-4.627793 1.282953 -26.392166 79 76 61 
-4.595369 1.286703 -26.469328 81 77 61 
-4.539660 1.283944 -26.412569 84 78 60 
-4.484294 1.281227 -26.356667 87 81 62 
-4.428561 1.278348 -26.297436 90 85 65 
-4.378958 1.277196 -26.273746 92 88 69 
-4.332016 1.276805 -26.265694 93 90 71 
-4.256896 1.268012 -26.084812 96 92 74 
-4.197163 1.263662 -25.995329 97 93 75 
-4.147058 1.262148 -25.964186 99 94 77 
-4.096534 1.260472 -25.929708 101 97 80 
-4.042626 1.257706 -25.872808 103 98 82 
-3.993675 1.256437 -25.846708 104 100 83 
-3.939748 1.253556 -25.787441 106 101 86 
-3.881649 1.249266 -25.699192 107 102 88 
-3.827660 1.246215 -25.636419 108 103 88 
-3.770287 1.241977 -25.549236 110 104 85 
-3.727021 1.242340 -25.556719 112 105 83 
-3.671571 1.238602 -25.479818 113 106 82 
-3.598927 1.228902 -25.280268 115 107 81 
-3.547413 1.226266 -25.226049 116 107 80 
-10.318099 1.084003 -23.125389 70 70 50 
-9.824976 1.036228 -22.106195 41 42 25 
-10.184853 1.078396 -23.005785 16 17 4 
-10.383853 1.103795 -23.547634 10 10 0 
-10.355067 1.105086 -23.575172 9 8 0 
-10.308805 1.104515 -23.562983 9 6 0 
-10.271914 1.104947 -23.572203 8 5 0 
-10.231990 1.105055 -23.574505 7 4 0 
-10.190710 1.105017 -23.573690 6 3 0 
-10.151971 1.105255 -23.578770 6 3 0 
-10.113432 1.105517 -23.584358 6 3 0 
-10.072740 1.105545 -23.584951 7 2 0 
-10.035796 1.105986 -23.594360 6 2 0 
-9.996150 1.106131 -23.597469 7 2 0 
-9.954336 1.106037 -23.595463 7 3 0 
-9.914383 1.106150 -23.597870 6 4 0 
-9.875062 1.106335 -23.601809 6 5 0 
-9.837973 1.106772 -23.611134 6 5 0 
-9.799862 1.107097 -23.618078 6 4 0 
-9.761291 1.107373 -23.623962 7 5 0 
-9.721507 1.107513 -23.626953 8 6 0 
-9.683835 1.107896 -23.635122 8 6 0 
-9.644357 1.108075 -23.638933 7 5 0 
-9.605521 1.108329 -23.644360 7 4 0 
-9.567749 1.108709 -23.652460 9 3 0 
-9.530759 1.109183 -23.662575 10 3 0 
-9.491776 1.109428 -23.667805 9 4 0 
-9.453378 1.109744 -23.674547 9 6 0 
-9.417151 1.110319 -23.686810 9 7 0 
-9.379646 1.110748 -23.695948 8 6 0 
-9.342855 1.111265 -23.706982 8 4 0 
-9.304577 1.111609 -23.714319 9 3 0 
-9.269617 1.112354 -23.730221 9 3 0 
-9.233273 1.112939 -23.742701 9 5 0 
-9.196893 1.113525 -23.755203 9 7 0 
-9.159162 1.113952 -23.764313 9 7 0 
-9.121735 1.114420 -23.774294 9 8 0 
-9.083262 1.114764 -23.781631 8 8 0 
-9.044533 1.115079 -23.788359 8 9 0 
-9.005708 1.115386 -23.794897 8 9 0 
-8.968896 1.115946 -23.806839 9 10 0 
-8.931838 1.116480 -23.818233 10 10 0 
-8.896294 1.117209 -23.833792 10 8 0 
-8.862539 1.118171 -23.854311 10 7 0 
-8.822661 1.118366 -23.858463 11 6 0 
-8.785660 1.118928 -23.870472 12 7 0 
-8.750331 1.119711 -23.887157 13 8 0 
-8.713463 1.120302 -23.899782 13 10 0 
-8.677217 1.120980 -23.914244 11 10 0 
-8.644175 1.122080 -23.937716 9 10 0 
-8.608622 1.122864 -23.954424 8 8 0 
-8.568994 1.123121 -23.959904 9 6 0 
-8.530616 1.123545 -23.968950 11 6 0 
-8.495088 1.124350 -23.986130 13 8 0 
-8.460292 1.125260 -24.005558 14 8 0 
-8.423265 1.125882 -24.018816 13 8 0 
-8.389044 1.126886 -24.040245 12 8 0 
-8.353836 1.127768 -24.059048 12 10 0 
-8.317265 1.128473 -24.074093 13 10 0 
-8.278320 1.128862 -24.082386 12 9 0 
-8.238892 1.129188 -24.089350 11 9 0 
-8.202017 1.129870 -24.103888 11 9 0 
-8.162698 1.130220 -24.111355 11 9 0 
-8.124935 1.130790 -24.123520 12 12 0 
-8.085802 1.131174 -24.131720 13 14 0 
-8.050378 1.132084 -24.151134 12 12 0 
-8.016469 1.133218 -24.175322 11 11 0 
-7.981591 1.134226 -24.196821 13 12 0 
-7.944653 1.134950 -24.212276 15 13 1 
-7.908328 1.135771 -24.229771 16 14 1 
-7.869322 1.136212 -24.239197 16 14 1 
-7.833836 1.137170 -24.259623 15 12 0 
-7.797132 1.137960 -24.276478 15 12 0 
-7.758882 1.138532 -24.288675 16 13 0 
-7.717773 1.138688 -24.292007 18 14 0 
-7.679200 1.139222 -24.303402 18 14 0 
-7.644696 1.140369 -24.327873 18 15 0 
-7.609234 1.141385 -24.349548 20 16 1 
-7.569866 1.141823 -24.358898 21 17 2 
-7.526814 1.141708 -24.356434 20 18 2 
-7.490670 1.142645 -24.376415 18 17 1 
-7.456591 1.143909 -24.403387 17 17 0 
-7.422808 1.145233 -24.431643 17 18 0 
-7.386099 1.146119 -24.450533 17 18 0 
-7.347355 1.146697 -24.462870 18 19 0 
-7.307818 1.147158 -24.472694 18 20 0 
-7.268219 1.147613 -24.482420 19 20 0 
-7.228065 1.147987 -24.490383 19 20 1 
-7.188412 1.148445 -24.500149 19 20 1 
-7.146793 1.148592 -24.503292 20 20 4 
-7.107355 1.149093 -24.513990 23 23 8 
-7.065226 1.149163 -24.515484 24 24 10 
-7.028007 1.150037 -24.534132 25 25 11 
-6.988079 1.150476 -24.543495 25 24 12 
-6.952494 1.151640 -24.568321 25 24 12 
-6.916496 1.152749 -24.591984 25 24 12 
-6.877267 1.153330 -24.604383 25 25 11 
-6.838499 1.153997 -24.618595 25 27 12 
-6.795499 1.153953 -24.617659 25 28 12 
-6.753667 1.154108 -24.620962 23 26 9 
-6.712003 1.154294 -24.624929 22 25 7 
-6.671373 1.154661 -24.632763 23 26 8 
-6.632132 1.155275 -24.645857 25 25 8 
-6.598746 1.156923 -24.681025 24 24 6 
-6.563671 1.158295 -24.710291 25 22 5 
-6.525202 1.159082 -24.727083 25 21 4 
-6.485808 1.159714 -24.740566 26 22 5 
-6.441939 1.159549 -24.737045 28 24 9 
-6.401246 1.159957 -24.745756 28 25 12 
-6.355834 1.159510 -24.736217 27 24 13 
-6.315797 1.160044 -24.747614 27 23 10 
-6.276462 1.160716 -24.761932 26 22 8 
-6.237195 1.161409 -24.776722 25 22 7 
-6.195127 1.161586 -24.780506 24 22 6 
-6.151860 1.161540 -24.779520 24 22 6 
-6.104061 1.160631 -24.760134 24 23 7 
-6.062265 1.160859 -24.764996 26 24 10 
-6.020451 1.161087 -24.769854 26 25 12 
-5.979143 1.161416 -24.776878 25 23 11 
-5.934143 1.161028 -24.768595 25 23 9 
-5.894771 1.161743 -24.783855 24 22 6 
-5.853426 1.162077 -24.790979 24 23 4 
-5.813841 1.162768 -24.805721 24 23 4 
-5.774837 1.163586 -24.823179 23 24 4 
-5.733950 1.164035 -24.832747 23 23 6 
-5.698373 1.165576 -24.865627 22 22 7 
-5.658405 1.166236 -24.879704 22 22 8 
-5.618486 1.166916 -24.894217 22 22 7 
-5.572303 1.166296 -24.880981 22 23 8 
-5.527609 1.165980 -24.874243 23 23 9 
-5.487213 1.166573 -24.886885 23 22 10 
-5.441890 1.166119 -24.877211 22 22 10 
-5.403823 1.167226 -24.900820 21 22 10 
-5.362957 1.167741 -24.911800 21 22 9 
-5.315488 1.166814 -24.892042 19 21 6 
-5.276105 1.167663 -24.910133 17 18 2 
-5.234855 1.168108 -24.919641 18 17 0 
-5.195299 1.168942 -24.937437 18 16 0 
-5.154747 1.169565 -24.950712 19 17 0 
-5.115007 1.170383 -24.968172 20 18 1 
-5.075858 1.171352 -24.988840 23 21 4 
-5.042821 1.173760 -25.040215 27 25 7 
-5.052455 1.186229 -25.306211 32 30 13 
-5.052032 1.196534 -25.526056 38 36 19 
-5.016067 1.198529 -25.568626 43 38 22 
-4.974923 1.199312 -25.585320 45 39 23 
-4.937447 1.201001 -25.621347 46 40 24 
-4.915836 1.206614 -25.741106 49 44 27 
-4.891675 1.211699 -25.849586 51 47 30 
-4.876693 1.219173 -26.009027 55 51 34 
-4.851181 1.224130 -26.114769 59 55 38 
-4.811702 1.225622 -26.146610 62 58 42 
-4.780701 1.229323 -26.225561 65 61 47 
-4.760746 1.235963 -26.367210 68 65 53 
-4.698227 1.231574 -26.273579 72 70 58 
-4.652699 1.231597 -26.274069 76 73 61 
-4.617917 1.234493 -26.335842 78 76 63 
-4.582108 1.237169 -26.392939 81 77 64 
-4.514874 1.231329 -26.268358 84 79 65 
-4.448832 1.225699 -26.148237 87 83 68 
-4.395569 1.223509 -26.101522 90 85 71 
-4.367412 1.228335 -26.204472 92 88 72 
-4.317700 1.227136 -26.178898 95 91 74 
-4.251032 1.221041 -26.048880 97 93 75 
-4.191699 1.216945 -25.961487 98 94 76 
-4.142232 1.215655 -25.933973 100 94 78 
-4.091613 1.213995 -25.898563 102 96 80 
-4.036280 1.210884 -25.832190 103 97 80 
-3.988138 1.209885 -25.810869 105 99 82 
-3.929570 1.205663 -25.720819 107 100 83 
-3.869525 1.200887 -25.618927 108 101 84 
-3.815142 1.197777 -25.552578 110 103 84 
-3.764815 1.195882 -25.512157 111 104 83 
-3.721778 1.196286 -25.520763 112 105 81 
-3.668043 1.193219 -25.455334 113 106 81 
-3.596393 1.184178 -25.262470 115 107 80 
-3.545827 1.181942 -25.214767 116 107 80 
-11.254183 1.134142 -25.125616 87 85 61 
-10.264930 1.038475 -23.006224 68 67 46 
-9.828503 0.998207 -22.114132 39 40 21 
-10.197798 1.039775 -23.035027 16 16 2 
-10.383611 1.062889 -23.547085 11 10 0 
-10.354441 1.064093 -23.573746 10 7 0 
-10.308304 1.063555 -23.561836 11 7 0 
-10.271320 1.063962 -23.570839 10 6 0 
-10.231676 1.064094 -23.573782 7 4 0 
-10.190354 1.064053 -23.572868 6 3 0 
-10.151360 1.064255 -23.577351 7 4 0 
-10.112920 1.064518 -23.583166 7 4 0 
-10.072192 1.064541 -23.583670 8 3 0 
-10.035308 1.064971 -23.593212 7 3 0 
-9.995776 1.065124 -23.596586 7 3 0 
-9.954075 1.065045 -23.594845 7 3 0 
-9.914197 1.065162 -23.597427 6 4 0 
-9.874710 1.065321 -23.600965 5 5 0 
-9.837545 1.065734 -23.610109 5 5 0 
-9.799091 1.066010 -23.616220 6 6 0 
-9.760498 1.066273 -23.622046 7 7 0 
-9.720719 1.066408 -23.625040 8 8 0 
-9.683072 1.066779 -23.633261 8 8 0 
-9.643547 1.066946 -23.636950 8 7 0 
-9.604935 1.067215 -23.642918 8 5 0 
-9.567362 1.067603 -23.651503 10 3 0 
-9.530466 1.068069 -23.661848 11 4 0 
-9.491199 1.068273 -23.666365 11 6 0 
-9.452812 1.068579 -23.673130 10 7 0 
-9.416654 1.069140 -23.685558 9 6 0 
-9.379193 1.069557 -23.694805 9 6 0 
-9.342359 1.070050 -23.705719 9 5 0 
-9.303888 1.070359 -23.712566 11 4 0 
-9.268698 1.071049 -23.727865 12 4 0 
-9.232266 1.071602 -23.740114 12 5 0 
-9.196124 1.072194 -23.753216 11 7 0 
-9.158580 1.072626 -23.762800 10 7 0 
-9.120896 1.073047 -23.772108 7 7 0 
-9.082705 1.073411 -23.780174 7 7 0 
-9.043838 1.073698 -23.786531 7 8 0 
-9.005057 1.073998 -23.793180 8 10 0 
-8.968128 1.074522 -23.804800 8 11 0 
-8.931314 1.075065 -23.816837 9 10 0 
-8.895728 1.075762 -23.832275 9 7 0 
-8.861456 1.076625 -23.851395 8 5 0 
-8.821693 1.076826 -23.855846 9 5 0 
-8.784651 1.077363 -23.867729 10 6 0 
-8.749449 1.078131 -23.884752 11 8 0 
-8.712637 1.078707 -23.897518 11 10 1 
-8.676332 1.079352 -23.911806 10 11 2 
-8.643264 1.080408 -23.935192 7 10 1 
-8.607903 1.081186 -23.952427 7 9 0 
-8.567637 1.081352 -23.956112 9 9 0 
-8.528977 1.081724 -23.964348 11 9 0 
-8.494234 1.082598 -23.983721 12 8 0 
-8.459370 1.083466 -24.002939 13 8 0 
-8.422442 1.084077 -24.016470 12 8 0 
-8.388547 1.085086 -24.038820 12 8 0 
-8.353265 1.085925 -24.057404 12 10 0 
-8.316693 1.086603 -24.072437 13 10 0 
-8.277249 1.086912 -24.079271 13 10 0 
-8.237838 1.087227 -24.086266 12 10 0 
-8.200656 1.087842 -24.099886 13 10 0 
-8.160507 1.088068 -24.104883 14 11 0 
-8.123369 1.088699 -24.118868 14 13 1 
-8.084380 1.089087 -24.127476 12 12 0 
-8.049014 1.089971 -24.147041 11 10 0 
-8.015641 1.091134 -24.172823 11 10 0 
-7.979590 1.091944 -24.190758 13 11 3 
-7.942642 1.092639 -24.206146 16 13 4 
-7.904640 1.093195 -24.218470 17 14 5 
-7.866631 1.093756 -24.230907 17 14 4 
-7.830489 1.094584 -24.249254 17 13 3 
-7.794744 1.095478 -24.269043 17 13 2 
-7.757082 1.096110 -24.283041 18 14 1 
-7.716549 1.096340 -24.288155 19 14 1 
-7.678044 1.096863 -24.299742 19 14 1 
-7.643022 1.097893 -24.322544 20 14 0 
-7.608072 1.098944 -24.345833 21 16 0 
-7.568333 1.099311 -24.353966 21 18 0 
-7.525376 1.099212 -24.351778 21 18 0 
-7.489488 1.100151 -24.372572 19 17 0 
-7.455425 1.101370 -24.399572 17 18 0 
-7.421903 1.102683 -24.428665 17 18 0 
-7.384723 1.103464 -24.445980 17 19 0 
-7.345665 1.103973 -24.457245 17 20 0 
-7.305248 1.104282 -24.464088 20 21 1 
-7.263241 1.104352 -24.465654 21 23 2 
-7.222135 1.104562 -24.470291 22 23 3 
-7.184501 1.105308 -24.486818 21 21 4 
-7.144608 1.105713 -24.495798 21 21 6 
-7.105198 1.106198 -24.506552 24 24 10 
-7.063118 1.106272 -24.508167 25 24 12 
-7.024638 1.106913 -24.522373 26 26 14 
-6.984217 1.107254 -24.529932 26 26 15 
-6.950169 1.108616 -24.560106 25 25 14 
-6.914839 1.109789 -24.586094 25 25 12 
-6.875570 1.110340 -24.598312 25 25 10 
-6.834638 1.110629 -24.604698 25 26 9 
-6.787451 1.109898 -24.588503 23 27 7 
-6.743350 1.109665 -24.583351 21 25 3 
-6.705022 1.110386 -24.599316 21 24 2 
-6.664652 1.110775 -24.607946 22 25 3 
-6.627332 1.111682 -24.628021 24 25 4 
-6.596030 1.113616 -24.670866 25 24 4 
-6.561279 1.114989 -24.701286 26 23 4 
-6.521345 1.115493 -24.712465 27 23 3 
-6.482400 1.116175 -24.727566 28 23 4 
-6.439085 1.116108 -24.726088 29 23 8 
-6.395475 1.115989 -24.723450 28 23 9 
-6.348342 1.115249 -24.707064 26 22 9 
-6.310392 1.116124 -24.726433 25 21 8 
-6.274262 1.117334 -24.753256 26 21 8 
-6.234707 1.117947 -24.766836 26 23 7 
-6.190311 1.117695 -24.761244 26 24 7 
-6.149008 1.118001 -24.768032 25 23 7 
-6.102730 1.117401 -24.754736 24 23 7 
-6.059935 1.117435 -24.755480 26 25 11 
-6.017842 1.117599 -24.759123 27 26 13 
-5.975220 1.117667 -24.760624 27 25 11 
-5.931577 1.117544 -24.757889 27 23 9 
-5.892669 1.118317 -24.775017 25 22 7 
-5.851450 1.118660 -24.782612 24 22 5 
-5.811293 1.119212 -24.794847 23 22 5 
-5.769753 1.119504 -24.801327 23 23 7 
-5.728251 1.119808 -24.808065 24 24 9 
-5.686306 1.120030 -24.812973 25 24 11 
-5.645694 1.120519 -24.823814 25 24 12 
-5.605787 1.121157 -24.837948 25 24 11 
-5.567470 1.122126 -24.859402 24 24 10 
-5.524501 1.122164 -24.860256 23 23 11 
-5.485022 1.122918 -24.876951 23 22 11 
-5.439594 1.122456 -24.866716 22 22 11 
-5.401215 1.123453 -24.888798 20 22 10 
-5.358643 1.123586 -24.891762 19 21 8 
-5.312328 1.122931 -24.877243 18 20 5 
-5.273514 1.123864 -24.897903 18 18 2 
-5.231766 1.124181 -24.904936 19 16 0 
-5.192118 1.124959 -24.922167 19 15 0 
-5.150261 1.125267 -24.928995 18 15 0 
-5.110402 1.126021 -24.945690 19 16 0 
-5.072247 1.127166 -24.971062 23 20 2 
-5.040688 1.129809 -25.029621 27 25 6 
-5.049533 1.141634 -25.291576 33 30 12 
-5.043002 1.150158 -25.480431 38 35 16 
-5.002273 1.150965 -25.498312 42 36 19 
-4.963287 1.152192 -25.525476 44 38 20 
-4.931372 1.155096 -25.589825 46 41 23 
-4.909679 1.160470 -25.708864 50 44 26 
-4.885905 1.165445 -25.819098 51 46 29 
-4.868120 1.171955 -25.963306 54 50 32 
-4.836236 1.175160 -26.034321 57 54 35 
-4.788850 1.174624 -26.022432 60 56 38 
-4.759893 1.178640 -26.111416 64 61 43 
-4.738492 1.184623 -26.243956 69 66 49 
-4.681786 1.181810 -26.181639 72 70 54 
-4.635437 1.181582 -26.176590 76 73 57 
-4.609307 1.186554 -26.286739 78 76 61 
-4.575410 1.189607 -26.354362 81 78 65 
-4.501802 1.182292 -26.192305 84 81 68 
-4.434681 1.176548 -26.065062 87 84 72 
-4.387893 1.176136 -26.055943 89 86 73 
-4.364119 1.181949 -26.184715 92 88 72 
-4.312399 1.180235 -26.146755 94 90 74 
-4.248273 1.175054 -26.031971 97 93 75 
-4.189119 1.171152 -25.945511 98 94 76 
-4.135342 1.168684 -25.890839 101 95 76 
-4.082871 1.166535 -25.843231 102 96 77 
-4.027611 1.163532 -25.776711 103 96 77 
-3.978911 1.162378 -25.751154 105 98 79 
-3.920526 1.158337 -25.661625 108 100 80 
-3.858632 1.153154 -25.546808 109 101 80 
-3.804935 1.150329 -25.484213 110 102 80 
-3.757399 1.149322 -25.461906 111 103 80 
-3.717936 1.150790 -25.494417 112 104 80 
-3.664177 1.147815 -25.428509 113 105 80 
-3.592239 1.139003 -25.233290 114 106 82 
-3.541026 1.136626 -25.180628 116 107 83 
-11.224221 1.087618 -25.058727 86 85 59 
-10.250791 0.997159 -22.974533 68 68 44 
-9.829618 0.959924 -22.116642 40 40 21 
-10.220183 1.001979 -23.085590 18 19 3 
-10.383469 1.021995 -23.546764 12 11 0 
-10.354055 1.023128 -23.572870 10 8 0 
-10.308125 1.022632 -23.561430 10 7 0 
-10.271092 1.023017 -23.570316 10 7 0 
-10.231274 1.023127 -23.572855 8 5 0 
-10.189868 1.023079 -23.571741 7 4 0 
-10.150887 1.023275 -23.576256 8 5 0 
-10.112551 1.023538 -23.582306 8 5 0 
-10.071959 1.023573 -23.583124 8 3 0 
-10.035017 1.023981 -23.592531 8 3 0 
-9.995525 1.024132 -23.595995 8 3 0 
-9.953891 1.024063 -23.594408 7 3 0 
-9.914031 1.024177 -23.597033 6 3 0 
-9.874310 1.024306 -23.600008 6 3 0 
-9.837176 1.024706 -23.609222 6 4 0 
-9.798617 1.024960 -23.615076 7 5 0 
-9.760005 1.025211 -23.620853 8 6 0 
-9.720300 1.025348 -23.624020 8 7 0 
-9.682601 1.025699 -23.632113 9 7 0 
-9.643164 1.025868 -23.636009 8 6 0 
-9.604673 1.026140 -23.642273 8 5 0 
-9.566889 1.026490 -23.650333 11 5 0 
-9.530117 1.026952 -23.660980 12 7 0 
-9.490896 1.027153 -23.665611 12 8 0 
-9.452427 1.027438 -23.672163 11 7 0 
-9.416253 1.027975 -23.684549 9 5 0 
-9.378778 1.028375 -23.693756 8 5 0 
-9.341985 1.028853 -23.704773 10 6 0 
-9.303408 1.029138 -23.711340 11 6 0 
-9.268277 1.029809 -23.726789 12 6 0 
-9.231924 1.030349 -23.739235 12 6 0 
-9.195717 1.030910 -23.752165 12 7 0 
-9.158022 1.031309 -23.761354 9 6 0 
-9.120481 1.031729 -23.771029 7 6 0 
-9.082334 1.032083 -23.779200 8 7 0 
-9.043346 1.032345 -23.785240 8 8 0 
-9.004395 1.032614 -23.791430 9 9 0 
-8.967463 1.033118 -23.803036 9 10 0 
-8.930666 1.033642 -23.815111 9 8 0 
-8.894905 1.034291 -23.830070 7 5 0 
-8.860944 1.035157 -23.850018 7 4 0 
-8.821091 1.035339 -23.854218 8 6 0 
-8.784019 1.035851 -23.866014 9 7 0 
-8.748768 1.036584 -23.882893 10 9 1 
-8.711430 1.037075 -23.894209 11 12 4 
-8.674876 1.037665 -23.907793 10 12 6 
-8.640982 1.038580 -23.928873 9 12 5 
-8.605595 1.039323 -23.946003 10 11 3 
-8.566669 1.039644 -23.953407 11 10 1 
-8.528299 1.040037 -23.962442 11 10 0 
-8.492599 1.040760 -23.979103 10 10 0 
-8.456964 1.041498 -23.996117 10 10 0 
-8.420326 1.042120 -24.010435 9 10 0 
-8.386998 1.043159 -24.034384 9 9 0 
-8.351580 1.043947 -24.052549 9 10 0 
-8.314901 1.044586 -24.067253 10 10 1 
-8.275921 1.044939 -24.075405 11 11 0 
-8.237036 1.045309 -24.083921 12 11 0 
-8.199786 1.045891 -24.097332 14 11 0 
-8.159285 1.046062 -24.101273 15 13 1 
-8.122185 1.046673 -24.115353 16 13 1 
-8.083193 1.047046 -24.123934 14 12 0 
-8.047771 1.047887 -24.143314 13 11 0 
-8.014003 1.048953 -24.167883 13 12 1 
-7.977548 1.049677 -24.184565 15 13 5 
-7.939779 1.050235 -24.197422 17 14 8 
-7.902130 1.050815 -24.210781 18 15 8 
-7.862910 1.051191 -24.219444 19 16 7 
-7.826843 1.051995 -24.237967 19 15 6 
-7.792967 1.053104 -24.263508 18 14 4 
-7.755982 1.053802 -24.279596 19 14 2 
-7.715583 1.054041 -24.285114 19 14 2 
-7.676830 1.054510 -24.295902 20 15 2 
-7.641915 1.055513 -24.319023 20 15 1 
-7.607178 1.056553 -24.342970 21 17 0 
-7.567482 1.056911 -24.351227 21 17 0 
-7.524574 1.056822 -24.349184 21 19 0 
-7.487575 1.057567 -24.366346 21 19 0 
-7.453663 1.058759 -24.393806 19 19 0 
-7.420444 1.060063 -24.423861 18 19 0 
-7.383241 1.060811 -24.441074 18 19 1 
-7.342756 1.061092 -24.447557 19 21 2 
-7.302294 1.061380 -24.454195 21 23 3 
-7.259486 1.061328 -24.453005 23 23 5 
-7.218960 1.061612 -24.459534 23 24 6 
-7.180291 1.062173 -24.472469 23 23 7 
-7.141580 1.062735 -24.485415 23 23 8 
-7.103839 1.063449 -24.501863 24 23 11 
-7.061090 1.063417 -24.501133 25 25 14 
-7.022722 1.064049 -24.515684 26 26 16 
-6.982183 1.064357 -24.522789 26 27 17 
-6.947951 1.065637 -24.552269 26 27 14 
-6.912253 1.066706 -24.576900 25 27 11 
-6.872685 1.067187 -24.587992 24 27 9 
-6.830740 1.067303 -24.590664 24 27 6 
-6.784206 1.066699 -24.576748 24 26 4 
-6.741448 1.066685 -24.576418 23 25 2 
-6.702754 1.067318 -24.590998 23 25 3 
-6.662470 1.067703 -24.599890 24 26 4 
-6.624157 1.068413 -24.616224 25 25 7 
-6.590220 1.069841 -24.649136 26 25 8 
-6.555064 1.071089 -24.677889 27 24 8 
-6.512886 1.071198 -24.680410 27 24 8 
-6.472699 1.071639 -24.690561 27 24 9 
-6.435419 1.072570 -24.712006 28 24 10 
-6.393510 1.072737 -24.715849 28 23 10 
-6.346604 1.072061 -24.700296 26 21 9 
-6.308078 1.072802 -24.717367 25 22 9 
-6.269533 1.073550 -24.734594 25 23 10 
-6.229882 1.074118 -24.747671 26 24 10 
-6.185026 1.073789 -24.740103 25 25 10 
-6.145633 1.074411 -24.754438 25 24 9 
-6.099567 1.073867 -24.741907 24 24 9 
-6.058001 1.074114 -24.747578 25 25 11 
-6.014714 1.074056 -24.746252 25 27 13 
-5.971910 1.074085 -24.746906 26 27 12 
-5.928553 1.074013 -24.745264 28 25 10 
-5.887981 1.074449 -24.755308 27 24 9 
-5.847298 1.074871 -24.765026 25 23 8 
-5.806861 1.075345 -24.775942 24 22 8 
-5.763788 1.075334 -24.775688 25 23 10 
-5.721955 1.075555 -24.780798 26 24 12 
-5.678437 1.075462 -24.778633 28 25 14 
-5.641832 1.076686 -24.806835 27 25 13 
-5.601937 1.077296 -24.820890 26 25 13 
-5.562431 1.077991 -24.836901 24 25 13 
-5.521159 1.078351 -24.845213 23 24 13 
-5.478959 1.078535 -24.849449 23 24 14 
-5.435566 1.078485 -24.848305 23 23 13 
-5.397784 1.079557 -24.872990 21 21 11 
-5.355846 1.079808 -24.878769 20 20 8 
-5.309999 1.079268 -24.866337 19 20 5 
-5.270957 1.080114 -24.885828 18 17 2 
-5.229179 1.080409 -24.892622 19 15 0 
-5.189460 1.081138 -24.909409 18 15 0 
-5.147563 1.081421 -24.915932 17 15 0 
-5.107867 1.082175 -24.933317 18 16 0 
-5.068381 1.082987 -24.952030 21 19 1 
-5.038208 1.085821 -25.017309 26 24 6 
-5.039824 1.095614 -25.242941 33 32 16 
-5.033675 1.103876 -25.433306 37 36 19 
-4.992245 1.104479 -25.447197 39 36 19 
-4.955902 1.106228 -25.487494 42 38 19 
-4.925434 1.109332 -25.559010 45 41 24 
-4.899159 1.113445 -25.653778 48 44 28 
-4.874766 1.118066 -25.760233 51 47 32 
-4.856619 1.124217 -25.901968 55 51 35 
-4.829175 1.128312 -25.996309 57 54 37 
-4.783453 1.128173 -25.993107 60 57 39 
-4.753121 1.131695 -26.074263 65 61 42 
-4.724576 1.135715 -26.166882 69 65 46 
-4.665140 1.132316 -26.088551 72 69 50 
-4.623515 1.133214 -26.109261 76 72 54 
-4.596206 1.137675 -26.212025 79 76 58 
-4.565825 1.141456 -26.299150 82 80 64 
-4.485731 1.132760 -26.098799 87 84 68 
-4.426084 1.129103 -26.014536 88 86 70 
-4.381193 1.129173 -26.016155 89 87 71 
-4.357237 1.134697 -26.143425 92 88 70 
-4.306141 1.133195 -26.108814 94 90 72 
-4.241979 1.128186 -25.993402 97 92 73 
-4.183747 1.124663 -25.912239 98 94 74 
-4.130494 1.122417 -25.860481 100 94 75 
-4.078505 1.120468 -25.815592 102 95 76 
-4.022995 1.117499 -25.747171 104 97 78 
-3.974597 1.116460 -25.723234 106 98 80 
-3.916307 1.112587 -25.634010 109 99 80 
-3.855179 1.107810 -25.523945 110 100 80 
-3.801703 1.105146 -25.462566 111 101 80 
-3.754477 1.104258 -25.442102 111 103 79 
-3.714377 1.105469 -25.470015 111 104 79 
-3.660095 1.102438 -25.400177 112 104 81 
-3.589041 1.094220 -25.210825 114 106 84 
-3.536069 1.091379 -25.145378 115 108 86 
-11.192736 1.041185 -24.988434 87 87 60 
-10.242663 0.956513 -22.956318 68 69 44 
-9.831377 0.921692 -22.120600 39 40 20 
-10.233008 0.963107 -23.114561 17 17 2 
-10.383464 0.981115 -23.546753 10 10 0 
-10.353657 0.982165 -23.571962 8 7 0 
-10.308031 0.981717 -23.561214 8 6 0 
-10.270890 0.982077 -23.569853 8 5 0 
-10.231129 0.982188 -23.572519 8 5 0 
-10.189261 0.982098 -23.570339 9 6 0 
-10.150607 0.982317 -23.575603 8 6 0 
-10.112425 0.982584 -23.582010 8 5 0 
-10.071688 0.982604 -23.582487 9 4 0 
-10.034745 0.982995 -23.591890 9 5 0 
-9.995317 0.983146 -23.595503 9 5 0 
-9.953709 0.983082 -23.593975 8 4 0 
-9.913978 0.983204 -23.596905 7 3 0 
-9.874178 0.983321 -23.599695 7 3 0 
-9.836950 0.983695 -23.608681 7 3 0 
-9.798285 0.983928 -23.614275 8 4 0 
-9.759652 0.984167 -23.619999 9 5 0 
-9.719941 0.984298 -23.623148 9 6 0 
-9.682322 0.984643 -23.631430 9 6 0 
-9.642845 0.984801 -23.635229 9 7 0 
-9.604346 0.985061 -23.641468 9 6 0 
-9.566709 0.985412 -23.649887 11 6 0 
-9.530069 0.985869 -23.660862 13 8 0 
-9.490816 0.986059 -23.665411 13 8 0 
-9.452144 0.986311 -23.671455 12 7 0 
-9.415952 0.986825 -23.683790 10 5 0 
-9.378531 0.987214 -23.693130 8 4 0 
-9.341730 0.987672 -23.704126 9 5 0 
-9.303185 0.987949 -23.710773 11 7 0 
-9.268018 0.988589 -23.726124 12 8 0 
-9.231586 0.989099 -23.738365 12 8 0 
-9.195432 0.989643 -23.751429 12 8 0 
-9.157660 0.990017 -23.760414 10 6 0 
-9.120176 0.990426 -23.770231 8 6 0 
-9.081895 0.990752 -23.778051 10 8 0 
-9.042539 0.990963 -23.783115 10 10 0 
-9.003847 0.991249 -23.789982 10 10 0 
-8.966922 0.991733 -23.801598 10 9 0 
-8.930331 0.992259 -23.814217 9 7 0 
-8.894699 0.992897 -23.829517 7 5 0 
-8.860395 0.993689 -23.848541 8 6 0 
-8.820594 0.993870 -23.852875 9 7 0 
-8.783721 0.994384 -23.865204 9 7 0 
-8.748487 0.995089 -23.882128 10 9 1 
-8.711067 0.995551 -23.893213 12 12 4 
-8.673978 0.996055 -23.905317 13 13 7 
-8.639955 0.996918 -23.926027 12 13 6 
-8.603933 0.997558 -23.941380 14 12 4 
-8.565877 0.997966 -23.951191 13 11 1 
-8.527679 0.998362 -23.960699 12 10 0 
-8.491878 0.999044 -23.977066 11 10 0 
-8.456195 0.999747 -23.993933 10 11 0 
-8.419881 1.000382 -24.009165 9 10 0 
-8.386166 1.001333 -24.031998 7 9 0 
-8.350807 1.002097 -24.050323 8 10 1 
-8.313836 1.002674 -24.064169 10 11 3 
-8.274754 1.003000 -24.072010 11 12 2 
-8.236202 1.003395 -24.081486 12 12 1 
-8.199144 1.003977 -24.095444 13 11 0 
-8.158203 1.004087 -24.098078 14 11 0 
-8.121232 1.004689 -24.112524 15 12 0 
-8.082471 1.005074 -24.121777 15 12 0 
-8.045188 1.005648 -24.135563 16 14 1 
-8.011770 1.006715 -24.161152 16 14 3 
-7.976413 1.007547 -24.181126 16 15 5 
-7.938803 1.008102 -24.194447 16 15 7 
-7.901023 1.008641 -24.207390 18 16 7 
-7.862228 1.009056 -24.217346 19 16 7 
-7.825370 1.009725 -24.233406 19 17 6 
-7.791718 1.010817 -24.259619 17 15 3 
-7.754556 1.011464 -24.275131 17 14 1 
-7.714975 1.011800 -24.283201 19 14 2 
-7.675697 1.012180 -24.292315 21 16 3 
-7.640894 1.013157 -24.315775 20 16 2 
-7.606084 1.014145 -24.339468 20 16 1 
-7.566709 1.014531 -24.348740 20 17 0 
-7.523834 1.014450 -24.346790 21 20 0 
-7.486063 1.015059 -24.361423 22 21 1 
-7.450712 1.016006 -24.384150 22 21 1 
-7.417589 1.017269 -24.414465 21 20 1 
-7.380701 1.018028 -24.432665 21 19 1 
-7.339726 1.018228 -24.437469 22 20 3 
-7.300095 1.018618 -24.446829 23 22 4 
-7.258239 1.018700 -24.448805 23 23 6 
-7.217565 1.018950 -24.454809 23 23 7 
-7.178779 1.019472 -24.467318 24 24 8 
-7.139708 1.019958 -24.478998 24 24 10 
-7.101927 1.020636 -24.495268 25 24 13 
-7.058990 1.020577 -24.493845 26 26 16 
-7.020537 1.021169 -24.508059 27 27 18 
-6.980247 1.021500 -24.515989 25 27 15 
-6.945292 1.022620 -24.542871 24 27 12 
-6.909577 1.023641 -24.567387 24 28 9 
-6.870166 1.024124 -24.578979 24 28 7 
-6.829264 1.024390 -24.585352 25 27 6 
-6.782547 1.023781 -24.570736 25 27 5 
-6.738082 1.023506 -24.564148 25 26 5 
-6.699081 1.024063 -24.577520 25 26 6 
-6.657528 1.024235 -24.581644 26 27 8 
-6.619421 1.024943 -24.598625 26 26 11 
-6.586827 1.026518 -24.636442 26 25 11 
-6.549152 1.027318 -24.655634 28 25 12 
-6.507180 1.027449 -24.658789 28 25 12 
-6.466391 1.027771 -24.666496 28 25 13 
-6.428580 1.028573 -24.685745 28 25 14 
-6.386643 1.028721 -24.689306 29 24 14 
-6.340768 1.028233 -24.677584 28 23 12 
-6.304707 1.029340 -24.704157 26 23 11 
-6.266794 1.030158 -24.723789 26 24 11 
-6.227586 1.030773 -24.738550 25 24 11 
-6.182646 1.030441 -24.730583 24 24 10 
-6.143299 1.031043 -24.745035 24 24 10 
-6.096243 1.030351 -24.728424 25 25 11 
-6.055795 1.030774 -24.738569 24 26 11 
-6.012531 1.030720 -24.737268 24 27 12 
-5.970111 1.030811 -24.739454 25 27 12 
-5.923624 1.030195 -24.724689 27 27 13 
-5.881175 1.030279 -24.726690 27 26 13 
-5.835948 1.029873 -24.716955 26 26 13 
-5.797551 1.030676 -24.736217 25 25 12 
-5.757972 1.031279 -24.750687 25 25 13 
-5.718396 1.031891 -24.765385 26 25 14 
-5.675739 1.031953 -24.766863 27 26 15 
-5.639344 1.033162 -24.795897 26 25 14 
-5.599129 1.033685 -24.808451 25 26 14 
-5.560005 1.034420 -24.826069 24 26 14 
-5.516774 1.034395 -24.825481 24 26 15 
-5.474351 1.034523 -24.828552 24 26 16 
-5.430688 1.034417 -24.826002 24 25 15 
-5.393344 1.035522 -24.852530 23 22 12 
-5.350728 1.035625 -24.854996 22 22 9 
-5.307316 1.035574 -24.853775 20 20 6 
-5.268461 1.036419 -24.874044 19 17 2 
-5.226198 1.036601 -24.878431 18 14 0 
-5.186407 1.037281 -24.894751 17 14 0 
-5.144462 1.037539 -24.900927 18 15 1 
-5.103482 1.037996 -24.911913 19 17 2 
-5.063754 1.038719 -24.929249 21 19 4 
-5.031217 1.040941 -24.982595 26 25 10 
-5.033842 1.050541 -25.212982 33 33 19 
-5.028168 1.058562 -25.405478 37 36 21 
-4.987745 1.059344 -25.424257 39 37 19 
-4.947887 1.060261 -25.446276 41 40 20 
-4.919522 1.063681 -25.528332 44 42 24 
-4.893245 1.067617 -25.622810 48 45 29 
-4.857062 1.069445 -25.666679 52 50 35 
-4.838001 1.075111 -25.802673 56 53 39 
-4.807371 1.078289 -25.878933 59 56 41 
-4.770187 1.080042 -25.921015 61 59 42 
-4.746542 1.084924 -26.038170 64 61 43 
-4.716966 1.088531 -26.124735 68 64 45 
-4.656842 1.085089 -26.042147 71 68 48 
-4.618640 1.086739 -26.081732 76 72 53 
-4.589932 1.090677 -26.176249 79 75 57 
-4.557464 1.093791 -26.250992 84 80 63 
-4.480780 1.086250 -26.069990 88 84 67 
-4.418414 1.082061 -25.969454 90 86 68 
-4.370094 1.081260 -25.950249 91 87 68 
-4.341985 1.085496 -26.051910 93 88 66 
-4.284914 1.082505 -25.980108 95 89 67 
-4.223219 1.078269 -25.878450 97 91 68 
-4.169421 1.075980 -25.823513 99 92 70 
-4.124372 1.075923 -25.822155 101 93 73 
-4.072744 1.074130 -25.779127 104 96 76 
-4.014750 1.070600 -25.694401 107 98 79 
-3.966897 1.069725 -25.673397 109 98 80 
-3.912927 1.067162 -25.611887 109 99 79 
-3.851053 1.062359 -25.496628 110 100 78 
-3.797077 1.059649 -25.431583 110 102 78 
-3.751723 1.059310 -25.423439 110 103 79 
-3.711044 1.060298 -25.447161 110 103 79 
-3.655399 1.056983 -25.367588 112 105 83 
-3.580731 1.048019 -25.152452 115 108 88 
-3.520460 1.043099 -25.034384 116 110 92 
-11.154002 0.994349 -24.901958 89 88 62 
-10.232431 0.915743 -22.933388 67 68 43 
-9.844282 0.884447 -22.149635 36 37 16 
-10.259467 0.925364 -23.174326 14 14 1 
-10.383786 0.940264 -23.547483 7 8 0 
-10.353443 0.941222 -23.571474 6 5 0 
-10.308163 0.940824 -23.561514 6 4 0 
-10.270940 0.941162 -23.569967 6 4 0 
-10.230987 0.941251 -23.572193 6 4 0 
-10.188782 0.941132 -23.569231 6 4 0 
-10.150352 0.941363 -23.575012 7 4 0 
-10.112362 0.941637 -23.581863 9 5 0 
-10.071460 0.941640 -23.581953 11 6 0 
-10.034664 0.942030 -23.591702 11 7 0 
-9.995319 0.942182 -23.595507 11 7 0 
-9.953632 0.942113 -23.593796 10 6 0 
-9.914107 0.942250 -23.597216 9 5 0 
-9.874160 0.942347 -23.599651 8 4 0 
-9.836904 0.942703 -23.608568 7 3 0 
-9.798178 0.942921 -23.614019 8 4 0 
-9.759534 0.943148 -23.619711 9 5 0 
-9.719817 0.943273 -23.622847 9 6 0 
-9.682217 0.943606 -23.631172 9 6 0 
-9.642746 0.943758 -23.634987 9 7 0 
-9.604191 0.944002 -23.641087 9 7 0 
-9.566635 0.944346 -23.649706 10 7 0 
-9.530146 0.944799 -23.661051 12 8 0 
-9.490851 0.944977 -23.665501 12 8 0 
-9.451892 0.945189 -23.670826 10 7 0 
-9.415764 0.945688 -23.683319 9 5 0 
-9.378391 0.946066 -23.692780 7 4 0 
-9.341561 0.946502 -23.703697 7 4 0 
-9.302987 0.946764 -23.710268 9 6 0 
-9.267921 0.947388 -23.725878 10 8 0 
-9.231479 0.947875 -23.738087 11 8 0 
-9.195274 0.948392 -23.751022 11 8 0 
-9.157498 0.948750 -23.759995 10 6 0 
-9.119865 0.949126 -23.769424 10 7 0 
-9.081734 0.949454 -23.777630 11 8 0 
-9.042067 0.949623 -23.781874 12 9 0 
-9.003254 0.949885 -23.788414 11 8 0 
-8.966502 0.950367 -23.800486 11 8 0 
-8.930058 0.950886 -23.813486 10 8 0 
-8.894454 0.951500 -23.828863 8 6 0 
-8.860248 0.952270 -23.848143 8 6 0 
-8.820221 0.952418 -23.851864 10 8 0 
-8.783027 0.952876 -23.863317 11 9 0 
-8.747940 0.953567 -23.880632 12 10 0 
-8.710485 0.954005 -23.891615 14 12 2 
-8.673172 0.954464 -23.903097 15 13 4 
-8.638985 0.955272 -23.923344 14 12 3 
-8.603040 0.955893 -23.938894 14 11 1 
-8.565313 0.956321 -23.949614 14 10 0 
-8.526758 0.956661 -23.958111 13 8 0 
-8.491222 0.957344 -23.975214 11 9 0 
-8.455496 0.958012 -23.991949 10 10 0 
-8.419484 0.958654 -24.008034 9 10 0 
-8.385110 0.959490 -24.028971 9 11 1 
-8.349290 0.960168 -24.045954 10 12 3 
-8.311855 0.960667 -24.058434 12 13 6 
-8.272535 0.960951 -24.065557 13 14 5 
-8.235068 0.961455 -24.078169 13 13 3 
-8.198469 0.962065 -24.093460 13 10 1 
-8.157566 0.962174 -24.096193 13 10 0 
-8.120589 0.962750 -24.110617 15 11 0 
-8.082033 0.963144 -24.120472 15 12 0 
-8.044472 0.963661 -24.133417 15 13 1 
-8.010852 0.964657 -24.158379 15 14 1 
-7.974586 0.965345 -24.175589 14 14 2 
-7.935472 0.965692 -24.184296 15 15 2 
-7.896607 0.966074 -24.193859 15 15 3 
-7.859571 0.966685 -24.209160 17 16 4 
-7.823887 0.967470 -24.228811 18 17 4 
-7.790706 0.968574 -24.256468 17 16 2 
-7.753760 0.969220 -24.272642 17 14 0 
-7.713475 0.969453 -24.278479 18 16 1 
-7.674520 0.969857 -24.288589 21 18 3 
