ply
format ascii 1.0
element vertex 1270
property float x
property float y
property float z
property uchar red
property uchar green
property uchar blue
end_header
0.503760 1.339264 -7.077212 36 26 6 
0.516268 1.339840 -7.080254 26 21 4 
0.528611 1.339969 -7.080935 23 22 8 
0.540910 1.339981 -7.081001 21 24 11 
0.553247 1.340088 -7.081566 20 24 14 
0.565625 1.340286 -7.082612 21 25 16 
0.577995 1.340456 -7.083513 21 25 19 
0.590376 1.340645 -7.084507 23 27 22 
0.602700 1.340700 -7.084802 22 26 21 
0.615102 1.340923 -7.085980 23 28 22 
0.627985 1.342164 -7.092534 29 34 27 
0.640896 1.343417 -7.099157 35 40 32 
0.653518 1.344028 -7.102385 40 44 37 
0.666382 1.345105 -7.108079 45 49 42 
0.678751 1.345161 -7.108372 46 51 45 
0.690729 1.344454 -7.104637 45 51 46 
0.702682 1.343724 -7.100782 44 51 47 
0.714827 1.343381 -7.098968 45 52 49 
0.726673 1.342497 -7.094297 48 56 52 
0.738906 1.342345 -7.093494 49 57 54 
0.751081 1.342096 -7.092178 49 57 54 
0.763199 1.341754 -7.090369 49 56 53 
0.775493 1.341726 -7.090224 45 52 49 
0.787751 1.341639 -7.089763 43 50 47 
0.799895 1.341362 -7.088297 45 51 47 
0.812031 1.341081 -7.086815 44 50 43 
0.824092 1.340688 -7.084734 33 39 30 
0.836082 1.340190 -7.082105 24 30 19 
0.848707 1.340711 -7.084858 36 43 32 
0.068155 1.472142 -7.851427 129 95 69 
0.077626 1.397271 -7.452112 113 82 60 
0.088396 1.363827 -7.273741 98 71 52 
0.101726 1.373304 -7.324286 86 64 48 
0.114423 1.373079 -7.323087 76 57 44 
0.126527 1.366496 -7.287978 70 54 42 
0.138807 1.362832 -7.268440 66 53 43 
0.152343 1.371086 -7.312457 64 53 46 
0.165692 1.376522 -7.341451 64 53 48 
0.180674 1.393771 -7.433446 65 57 51 
0.193577 1.393757 -7.433372 67 61 56 
0.205198 1.385084 -7.387116 69 65 60 
0.222448 1.413199 -7.537060 75 72 67 
0.239126 1.434754 -7.652023 79 77 73 
0.256548 1.458273 -7.777454 82 81 77 
0.274521 1.482414 -7.906207 84 85 79 
0.287682 1.479509 -7.890714 87 88 80 
0.298051 1.463158 -7.803510 89 88 79 
0.310759 1.459214 -7.782475 88 85 74 
0.321147 1.445160 -7.707522 87 81 69 
0.318881 1.377566 -7.347021 86 75 62 
0.327681 1.361138 -7.259404 83 68 54 
0.341008 1.364030 -7.274828 81 63 49 
0.354858 1.368739 -7.299942 82 59 47 
0.368627 1.372819 -7.321702 84 59 48 
0.381216 1.372377 -7.319343 89 63 50 
0.391219 1.362956 -7.269101 98 69 55 
0.400805 1.352718 -7.214496 108 77 59 
0.412887 1.351267 -7.206758 116 83 61 
0.424937 1.349801 -7.198938 124 89 63 
0.437564 1.350198 -7.201054 132 94 67 
0.449801 1.349404 -7.196821 136 98 71 
0.462840 1.350992 -7.205292 135 98 73 
0.477086 1.355928 -7.231617 127 95 72 
0.490371 1.357949 -7.242396 106 81 59 
0.494469 1.335066 -7.120350 65 49 31 
0.503777 1.327023 -7.077458 34 25 9 
0.516276 1.327567 -7.080357 23 19 5 
0.528615 1.327684 -7.080981 21 20 8 
0.540912 1.327693 -7.081028 20 22 10 
0.553249 1.327797 -7.081584 19 24 12 
0.565625 1.327990 -7.082613 19 24 14 
0.577995 1.328159 -7.083515 20 25 16 
0.590376 1.328347 -7.084517 22 27 18 
0.602701 1.328403 -7.084815 23 27 18 
0.615104 1.328626 -7.086003 24 28 19 
0.627989 1.329860 -7.092586 29 33 23 
0.640905 1.331111 -7.099257 35 40 29 
0.653526 1.331714 -7.102472 41 45 36 
0.666393 1.332785 -7.108187 45 49 41 
0.678768 1.332854 -7.108555 45 50 43 
0.690747 1.332154 -7.104823 44 50 43 
0.702695 1.331423 -7.100920 43 50 43 
0.714839 1.331080 -7.099094 43 51 44 
0.726669 1.330174 -7.094264 44 53 45 
0.738787 1.329817 -7.092358 41 50 42 
0.750957 1.329563 -7.091005 40 48 40 
0.763282 1.329588 -7.091138 39 47 40 
0.775600 1.329600 -7.091202 35 43 37 
0.787761 1.329346 -7.089846 32 39 33 
0.799960 1.329164 -7.088874 35 41 35 
0.812045 1.328801 -7.086939 40 46 38 
0.824103 1.328405 -7.084826 35 41 31 
0.836083 1.327897 -7.082117 23 30 18 
0.848400 1.327930 -7.082293 25 31 20 
0.865929 1.336005 -7.125358 51 57 46 
0.067974 1.454643 -7.830600 125 95 67 
0.077543 1.382854 -7.444147 109 82 57 
0.088155 1.347519 -7.253935 93 68 46 
0.101328 1.355256 -7.295584 80 59 41 
0.114283 1.358696 -7.314099 72 54 39 
0.126506 1.353609 -7.286718 69 53 40 
0.138784 1.349989 -7.267231 65 52 41 
0.152294 1.357951 -7.310091 63 50 42 
0.165590 1.362932 -7.336907 62 49 41 
0.179553 1.372297 -7.387321 61 51 42 
0.191530 1.366246 -7.354743 63 55 44 
0.203092 1.358175 -7.311299 64 56 45 
0.215548 1.356681 -7.303257 68 59 48 
0.228199 1.356518 -7.302376 72 62 51 
0.240498 1.354385 -7.290895 77 67 56 
0.253123 1.354210 -7.289955 82 73 61 
0.267079 1.360833 -7.325603 87 77 65 
0.281574 1.369475 -7.372126 90 78 66 
0.296529 1.379506 -7.426123 89 75 64 
0.306111 1.364746 -7.346670 87 71 59 
0.316207 1.353364 -7.285399 85 67 55 
0.327408 1.347408 -7.253337 84 63 50 
0.340921 1.351058 -7.272987 83 62 47 
0.354797 1.355830 -7.298672 84 60 47 
0.368186 1.358480 -7.312942 89 63 50 
0.377674 1.347038 -7.251346 98 70 54 
0.387652 1.338023 -7.202816 108 76 58 
0.399886 1.337119 -7.197949 116 81 60 
0.412310 1.336884 -7.196684 123 86 62 
0.424483 1.335873 -7.191239 130 92 66 
0.437431 1.337290 -7.198868 134 96 70 
0.449762 1.336792 -7.196187 135 99 72 
0.462743 1.338203 -7.203784 131 97 73 
0.476677 1.342221 -7.225414 119 91 69 
0.483217 1.325749 -7.136743 90 69 50 
0.493096 1.319033 -7.100587 52 37 22 
0.503816 1.314838 -7.078006 30 21 9 
0.516286 1.315300 -7.080492 23 18 9 
0.528632 1.315432 -7.081205 24 22 13 
0.540933 1.315451 -7.081308 24 24 16 
0.553280 1.315576 -7.081980 24 26 19 
0.565661 1.315776 -7.083054 25 29 21 
0.578047 1.315980 -7.084155 27 31 22 
0.590414 1.316132 -7.084974 28 33 22 
0.602732 1.316169 -7.085172 28 33 21 
0.615150 1.316421 -7.086530 28 35 22 
0.628004 1.317577 -7.092749 31 37 23 
0.640921 1.318817 -7.099428 34 41 26 
0.653581 1.319494 -7.103069 38 45 31 
0.666558 1.320772 -7.109949 41 48 35 
0.678874 1.320719 -7.109667 42 48 38 
0.690815 1.319950 -7.105527 41 47 39 
0.702742 1.319182 -7.101392 39 47 39 
0.714863 1.318799 -7.099327 40 48 40 
0.726667 1.317854 -7.094240 40 49 40 
0.738782 1.317494 -7.092306 37 46 36 
0.750950 1.317240 -7.090937 36 43 34 
0.763281 1.317275 -7.091125 34 41 34 
0.775620 1.317323 -7.091385 30 37 31 
0.787777 1.317065 -7.089995 26 33 28 
0.799990 1.316906 -7.089139 27 34 29 
0.812059 1.316520 -7.087060 34 42 35 
0.824133 1.316153 -7.085086 36 44 36 
0.836187 1.315764 -7.082992 28 36 27 
0.848400 1.315634 -7.082293 24 31 21 
0.865127 1.322409 -7.118762 40 46 36 
0.055530 1.471536 -7.996274 132 106 79 
0.067732 1.435914 -7.802701 120 95 69 
0.077516 1.369445 -7.441515 107 83 58 
0.088132 1.334563 -7.251965 90 69 46 
0.101252 1.341592 -7.290161 75 56 37 
0.114201 1.345034 -7.308862 68 51 35 
0.126407 1.339915 -7.281047 66 50 35 
0.138647 1.336056 -7.260079 63 49 35 
0.151982 1.342511 -7.295152 60 45 33 
0.165572 1.350051 -7.336124 57 43 31 
0.178700 1.353012 -7.352217 56 45 31 
0.190899 1.349022 -7.330537 57 48 33 
0.203365 1.347295 -7.321148 59 50 34 
0.216869 1.352243 -7.348040 62 51 35 
0.230768 1.358970 -7.384591 66 53 37 
0.241544 1.347561 -7.322597 72 58 42 
0.252482 1.338152 -7.271469 78 63 49 
0.265380 1.339539 -7.279006 84 67 54 
0.278950 1.344031 -7.303412 87 68 56 
0.293607 1.353147 -7.352952 88 67 55 
0.304740 1.345933 -7.313751 88 64 53 
0.315673 1.338452 -7.273095 89 63 51 
0.327221 1.334055 -7.249206 89 62 48 
0.340298 1.335985 -7.259694 91 63 48 
0.354263 1.341140 -7.287705 91 64 48 
0.366851 1.340903 -7.286417 97 69 52 
0.375995 1.328515 -7.219100 107 76 56 
0.387083 1.323575 -7.192256 115 81 58 
0.399663 1.323883 -7.193930 121 84 59 
0.412095 1.323701 -7.192939 127 90 62 
0.424352 1.322981 -7.189031 133 95 68 
0.437340 1.324514 -7.197361 136 99 71 
0.449725 1.324190 -7.195597 133 99 73 
0.462584 1.325241 -7.201310 125 95 73 
0.473213 1.320014 -7.172908 105 81 62 
0.479722 1.303860 -7.085126 69 53 36 
0.491848 1.303398 -7.082617 38 28 14 
0.503837 1.302603 -7.078296 26 21 11 
0.516306 1.303059 -7.080774 24 22 14 
0.528657 1.303202 -7.081549 27 26 19 
0.541011 1.303344 -7.082325 30 30 24 
0.553525 1.303858 -7.085116 32 34 29 
0.565834 1.303879 -7.085227 34 37 31 
0.578162 1.303940 -7.085559 35 38 30 
0.590463 1.303939 -7.085554 33 38 29 
0.602768 1.303947 -7.085598 32 38 27 
0.615192 1.304207 -7.087013 33 40 26 
0.628049 1.305357 -7.093263 34 41 27 
0.640948 1.306547 -7.099730 35 43 29 
0.653594 1.307188 -7.103211 38 44 32 
0.666590 1.308491 -7.110293 40 46 36 
0.678899 1.308424 -7.109925 41 47 39 
0.690836 1.307653 -7.105738 41 47 41 
0.702761 1.306889 -7.101587 40 47 42 
0.714876 1.306498 -7.099460 41 48 43 
0.726668 1.305540 -7.094254 41 49 43 
0.738783 1.305183 -7.092313 38 46 38 
0.750950 1.304930 -7.090940 36 43 35 
0.763282 1.304965 -7.091132 34 42 33 
0.775622 1.305015 -7.091402 30 38 31 
0.787779 1.304759 -7.090013 25 34 28 
0.799991 1.304602 -7.089156 26 35 30 
0.812065 1.304226 -7.087112 31 41 36 
0.824183 1.303932 -7.085517 37 47 42 
0.836873 1.304537 -7.088805 34 44 40 
0.848796 1.303948 -7.085602 32 42 37 
0.865085 1.309985 -7.118411 45 52 48 
0.067232 1.411880 -7.745168 113 93 71 
0.077391 1.354338 -7.429510 103 83 63 
0.088091 1.321359 -7.248599 88 70 51 
0.101242 1.328801 -7.289423 73 56 39 
0.114171 1.332000 -7.306971 65 48 33 
0.126327 1.326434 -7.276437 62 46 32 
0.138483 1.321886 -7.251491 59 45 30 
0.151880 1.328948 -7.290227 56 41 26 
0.165677 1.338164 -7.340783 54 39 24 
0.178758 1.340683 -7.354602 52 39 23 
0.191048 1.337336 -7.336243 53 42 24 
0.203486 1.335374 -7.325479 57 46 27 
0.217010 1.340357 -7.352818 60 47 29 
0.231564 1.350791 -7.410054 62 47 29 
0.243993 1.348384 -7.396847 66 49 31 
0.252491 1.325579 -7.271749 74 54 38 
0.265013 1.325066 -7.268936 81 59 44 
0.278258 1.328048 -7.285291 84 60 46 
0.292203 1.333970 -7.317779 85 59 47 
0.304242 1.331060 -7.301814 89 60 47 
0.315495 1.325081 -7.269013 92 62 48 
0.326977 1.320486 -7.243807 95 63 47 
0.339824 1.321537 -7.249572 98 66 48 
0.352772 1.322894 -7.257017 101 69 50 
0.363620 1.316555 -7.222244 108 76 55 
0.374651 1.311278 -7.193294 116 82 59 
0.386780 1.310060 -7.186617 121 85 60 
0.399367 1.310424 -7.188613 125 89 62 
0.411858 1.310458 -7.188799 130 94 66 
0.424261 1.310218 -7.187484 134 98 71 
0.437302 1.311907 -7.196749 135 99 73 
0.449671 1.311539 -7.194728 130 99 76 
0.462348 1.312068 -7.197631 117 91 72 
0.469837 1.298233 -7.121736 87 69 52 
0.479060 1.289776 -7.075342 50 40 25 
0.491833 1.291061 -7.082391 30 27 14 
0.503905 1.290488 -7.079247 26 26 17 
0.516374 1.290935 -7.081703 27 28 21 
0.528788 1.291226 -7.083299 33 33 27 
0.541155 1.291393 -7.084214 37 38 33 
0.553577 1.291679 -7.085784 38 41 35 
0.565846 1.291604 -7.085372 38 43 36 
0.578175 1.291667 -7.085714 38 43 35 
0.590498 1.291714 -7.085975 38 43 35 
0.602852 1.291825 -7.086583 37 44 35 
0.615290 1.292109 -7.088140 37 45 34 
0.628221 1.293396 -7.095200 37 46 34 
0.641167 1.294665 -7.102162 39 47 35 
0.653665 1.294997 -7.103983 40 46 36 
0.666626 1.296217 -7.110674 40 46 38 
0.678935 1.296149 -7.110301 41 47 41 
0.690923 1.295481 -7.106637 43 49 45 
0.702828 1.294683 -7.102259 43 49 46 
0.714912 1.294237 -7.099812 42 50 47 
0.726673 1.293231 -7.094297 42 49 46 
0.738787 1.292877 -7.092355 39 46 41 
0.750954 1.292625 -7.090973 36 44 38 
0.763287 1.292663 -7.091180 35 42 36 
0.775632 1.292720 -7.091494 32 40 33 
0.787804 1.292490 -7.090232 28 38 31 
0.800012 1.292327 -7.089337 29 39 33 
0.812081 1.291948 -7.087255 34 43 39 
0.824192 1.291645 -7.085594 37 47 44 
0.836951 1.292351 -7.089470 38 49 46 
0.849864 1.293272 -7.094520 42 51 49 
0.865921 1.298882 -7.125295 52 61 58 
0.065595 1.364385 -7.556596 102 87 71 
0.077195 1.338052 -7.410747 96 82 67 
0.088059 1.308306 -7.246002 83 70 55 
0.101228 1.315967 -7.288432 69 56 42 
0.114156 1.319131 -7.305958 62 48 36 
0.126302 1.313546 -7.275022 59 45 34 
0.138423 1.308727 -7.248334 56 41 30 
0.151869 1.316199 -7.289718 53 38 25 
0.165722 1.325779 -7.342775 51 36 22 
0.178792 1.328169 -7.356016 49 36 21 
0.191144 1.325265 -7.339929 50 36 21 
0.203681 1.323929 -7.332530 53 40 23 
0.217256 1.329093 -7.361130 56 42 25 
0.232656 1.344237 -7.445006 56 41 24 
0.249461 1.365470 -7.562602 58 40 23 
0.258496 1.344179 -7.444684 64 42 25 
0.265708 1.315889 -7.287999 71 47 31 
0.278333 1.315754 -7.287252 76 50 34 
0.291235 1.316888 -7.293531 80 53 37 
0.304034 1.317479 -7.296805 87 58 42 
0.315403 1.312076 -7.266885 94 63 46 
0.326774 1.307097 -7.239308 100 66 47 
0.338843 1.305174 -7.228657 105 72 51 
0.349881 1.299559 -7.197556 111 77 55 
0.361622 1.296850 -7.182556 117 84 60 
0.373863 1.296058 -7.178169 123 88 64 
0.386517 1.296701 -7.181727 126 89 64 
0.399070 1.296979 -7.183268 129 93 67 
0.411710 1.297512 -7.186219 132 96 71 
0.424217 1.297606 -7.186740 133 98 74 
0.437223 1.299176 -7.195439 131 98 76 
0.449443 1.298390 -7.191081 122 94 75 
0.455513 1.280360 -7.091225 100 80 63 
0.465928 1.275171 -7.062483 68 55 40 
0.479282 1.278085 -7.078622 40 35 22 
0.491830 1.278759 -7.082357 29 30 19 
0.503976 1.278378 -7.080247 28 32 22 
0.516504 1.278963 -7.083490 32 35 28 
0.528846 1.279068 -7.084071 37 40 33 
0.541159 1.279103 -7.084260 39 42 36 
0.553580 1.279386 -7.085829 40 44 37 
0.565848 1.279308 -7.085396 41 46 38 
0.578188 1.279395 -7.085883 43 48 39 
0.590531 1.279483 -7.086368 43 49 40 
0.602881 1.279584 -7.086927 42 49 40 
0.615308 1.279841 -7.088349 40 48 38 
0.628247 1.281130 -7.095490 39 47 37 
0.641186 1.282372 -7.102368 39 46 36 
0.653691 1.282714 -7.104262 39 45 35 
0.666707 1.284028 -7.111539 38 44 36 
0.679145 1.284201 -7.112496 38 44 37 
0.691568 1.284340 -7.113268 38 44 39 
0.703094 1.282839 -7.104953 38 45 41 
0.715174 1.282381 -7.102417 38 45 41 
0.726750 1.281051 -7.095052 37 45 40 
0.738816 1.280615 -7.092638 35 42 38 
0.750977 1.280353 -7.091188 33 39 36 
0.763300 1.280374 -7.091301 33 39 34 
0.775641 1.280424 -7.091579 32 38 32 
0.787812 1.280194 -7.090307 30 37 31 
0.800018 1.280028 -7.089388 30 38 32 
0.812101 1.279674 -7.087426 32 40 36 
0.824237 1.279412 -7.085977 35 43 40 
0.836976 1.280080 -7.089675 38 45 43 
0.849890 1.280993 -7.094732 41 49 44 
0.866048 1.286699 -7.126334 47 55 48 
0.064975 1.338488 -7.485138 90 85 75 
0.076923 1.320513 -7.384617 92 87 75 
0.087888 1.293203 -7.231895 84 79 67 
0.099671 1.283259 -7.176281 74 68 57 
0.112600 1.288645 -7.206404 66 58 50 
0.125581 1.293483 -7.233456 59 51 45 
0.137688 1.289259 -7.209838 55 46 40 
0.151847 1.303353 -7.288655 51 40 31 
0.165815 1.313763 -7.346867 47 36 26 
0.178868 1.315956 -7.359133 45 33 23 
0.191225 1.313080 -7.343048 45 33 21 
0.203995 1.313221 -7.343836 47 34 21 
0.217974 1.320666 -7.385471 49 36 23 
0.233497 1.336124 -7.471918 51 35 22 
0.251062 1.361021 -7.611148 52 34 20 
0.259810 1.338020 -7.482518 57 35 20 
0.266552 1.307375 -7.311144 63 38 22 
0.278701 1.304827 -7.296895 69 43 26 
0.291083 1.303548 -7.289741 76 48 30 
0.303803 1.303822 -7.291279 85 56 36 
0.315278 1.298946 -7.264011 95 63 42 
0.326643 1.294011 -7.236409 103 70 47 
0.338668 1.291957 -7.224927 109 76 52 
0.349644 1.286189 -7.192670 115 83 58 
0.361392 1.283566 -7.177998 122 89 64 
0.373736 1.283160 -7.175730 127 92 67 
0.386172 1.283086 -7.175318 130 94 70 
0.398853 1.283808 -7.179356 132 96 73 
0.411582 1.284633 -7.183969 132 97 77 
0.424057 1.284643 -7.184025 129 97 80 
0.436419 1.284319 -7.182210 120 92 77 
0.440629 1.260688 -7.050063 102 81 67 
0.454627 1.265585 -7.077444 74 61 48 
0.466500 1.264460 -7.071153 49 43 30 
0.479302 1.265850 -7.078927 35 34 23 
0.491830 1.266463 -7.082355 30 35 24 
0.504086 1.266362 -7.081791 32 38 28 
0.516529 1.266727 -7.083832 34 41 31 
0.528848 1.266775 -7.084102 37 43 33 
0.541159 1.266804 -7.084261 39 43 33 
0.553582 1.267088 -7.085851 41 44 34 
0.565847 1.267006 -7.085392 44 47 37 
0.578189 1.267094 -7.085886 46 49 40 
0.590531 1.267182 -7.086376 45 50 41 
0.602882 1.267282 -7.086934 43 49 40 
0.615310 1.267539 -7.088372 41 48 38 
0.628258 1.268834 -7.095618 39 46 36 
0.641227 1.270123 -7.102825 37 44 35 
0.653747 1.270490 -7.104877 36 44 34 
0.667108 1.272447 -7.115821 33 41 32 
0.680732 1.274825 -7.129120 31 39 31 
0.696921 1.281837 -7.168330 30 37 30 
0.712321 1.287177 -7.198192 30 36 30 
0.725927 1.289146 -7.209205 29 35 30 
0.728630 1.272015 -7.113405 29 34 30 
0.740218 1.270707 -7.106091 27 32 27 
0.751636 1.269156 -7.097417 25 30 25 
0.763698 1.268724 -7.095002 26 31 25 
0.775785 1.268346 -7.092887 27 32 26 
0.787949 1.268106 -7.091544 25 30 25 
0.800153 1.267934 -7.090585 25 30 25 
0.812236 1.267580 -7.088604 24 30 26 
0.824407 1.267371 -7.087436 26 32 28 
0.836615 1.267226 -7.086623 29 35 31 
0.848676 1.266864 -7.084599 31 36 31 
0.860627 1.266351 -7.081727 34 38 31 
0.873012 1.266482 -7.082465 40 43 32 
0.894653 1.279851 -7.157228 56 57 42 
0.000000 1.630769 -9.209049 42 50 45 
0.049779 1.269368 -7.168195 60 62 58 
0.062825 1.281638 -7.237484 75 76 70 
0.076359 1.298098 -7.330434 81 82 74 
0.087853 1.280150 -7.229080 80 81 73 
0.099556 1.269338 -7.168027 77 76 70 
0.111478 1.263413 -7.134566 70 69 65 
0.123338 1.258048 -7.104270 62 60 59 
0.136742 1.267969 -7.160296 56 53 50 
0.151803 1.290325 -7.286541 50 45 38 
0.165902 1.301692 -7.350730 43 36 29 
0.178967 1.303900 -7.363198 40 31 23 
0.191405 1.301556 -7.349964 39 29 20 
0.204401 1.303054 -7.358421 40 29 19 
0.220163 1.320980 -7.459651 41 29 19 
0.236072 1.337742 -7.554306 43 30 19 
0.251997 1.352826 -7.639491 46 32 19 
0.260058 1.326294 -7.489662 52 34 19 
0.266570 1.294770 -7.311645 58 38 22 
0.278718 1.292240 -7.297354 64 42 25 
0.291070 1.290834 -7.289414 73 49 30 
0.303766 1.291005 -7.290383 86 57 38 
0.315162 1.285861 -7.261330 96 66 45 
0.326562 1.281127 -7.234598 104 73 50 
0.338556 1.278990 -7.222533 112 79 55 
0.349512 1.273222 -7.189962 119 87 62 
0.361327 1.270874 -7.176700 126 92 67 
0.373662 1.270451 -7.174313 130 95 71 
0.386125 1.270476 -7.174450 131 96 74 
0.398781 1.271116 -7.178064 131 98 78 
0.411510 1.271942 -7.182728 128 98 81 
0.423478 1.270434 -7.174215 118 92 78 
0.427268 1.245182 -7.031614 98 78 66 
0.439382 1.244914 -7.030104 72 61 50 
0.454356 1.252549 -7.073217 48 45 35 
0.467097 1.253786 -7.080204 35 36 26 
0.479321 1.253608 -7.079201 30 35 24 
0.491831 1.254169 -7.082364 31 38 26 
0.504095 1.254090 -7.081922 33 41 29 
0.516534 1.254439 -7.083889 35 43 31 
0.528850 1.254480 -7.084124 38 44 32 
0.541159 1.254505 -7.084264 40 45 33 
0.553584 1.254789 -7.085870 40 45 33 
0.565846 1.254703 -7.085381 41 47 34 
0.578187 1.254790 -7.085871 42 48 36 
0.590532 1.254881 -7.086385 42 48 38 
0.602882 1.254979 -7.086941 41 48 38 
0.615316 1.255244 -7.088439 38 46 36 
0.628282 1.256564 -7.095891 37 45 34 
0.641275 1.257886 -7.103357 35 43 33 
0.653856 1.258365 -7.106061 32 42 33 
0.667234 1.260331 -7.117160 30 39 31 
0.680981 1.262911 -7.131731 28 36 28 
0.697449 1.270354 -7.173766 27 34 25 
0.713827 1.277374 -7.213406 26 32 23 
0.728093 1.280439 -7.230715 26 30 22 
0.729488 1.261149 -7.121780 25 28 20 
0.740623 1.259059 -7.109982 24 26 18 
0.751704 1.256948 -7.098062 22 25 19 
0.763808 1.256587 -7.096023 22 25 19 
0.775937 1.256278 -7.094277 23 26 20 
0.788013 1.255896 -7.092121 22 26 19 
0.800274 1.255814 -7.091658 20 24 18 
0.812303 1.255378 -7.089193 19 23 17 
0.824570 1.255316 -7.088843 19 23 17 
0.836853 1.255280 -7.088640 20 24 17 
0.848203 1.253865 -7.080648 23 26 18 
0.860086 1.253269 -7.077282 27 29 19 
0.872783 1.253857 -7.080603 33 34 21 
0.894696 1.267487 -7.157571 52 51 33 
-0.078168 1.578984 -9.004896 64 73 70 
0.000000 1.606549 -9.162100 31 36 31 
0.048838 1.233169 -7.032728 34 39 31 
0.060773 1.227612 -7.001035 46 51 42 
0.072958 1.228134 -7.004013 52 57 47 
0.085125 1.228237 -7.004596 54 58 50 
0.097300 1.228419 -7.005635 56 59 53 
0.109603 1.229992 -7.014606 56 59 53 
0.122519 1.237439 -7.057075 52 54 50 
0.135940 1.248175 -7.118305 46 48 44 
0.151928 1.278731 -7.292565 39 38 34 
0.168946 1.312577 -7.485589 32 30 24 
0.184236 1.329135 -7.580015 28 24 18 
0.195410 1.315758 -7.503728 27 22 15 
0.207533 1.310049 -7.471172 29 22 15 
0.223700 1.329044 -7.579499 32 23 15 
0.240987 1.352206 -7.711589 35 24 16 
0.253010 1.344946 -7.670185 41 29 19 
0.260235 1.314189 -7.494780 49 34 21 
0.266569 1.282069 -7.311600 56 38 23 
0.278715 1.279554 -7.297256 63 43 27 
0.291024 1.277974 -7.288246 74 52 34 
0.303423 1.276907 -7.282161 89 62 44 
0.314714 1.271443 -7.251003 100 70 51 
0.326372 1.267830 -7.230394 108 76 55 
0.338268 1.265374 -7.216393 116 83 61 
0.349342 1.260128 -7.186472 125 89 68 
0.361274 1.258229 -7.175642 130 94 72 
0.373647 1.257943 -7.174014 131 95 74 
0.386111 1.257974 -7.174187 129 96 76 
0.398723 1.258469 -7.177009 125 96 79 
0.410912 1.257640 -7.172284 116 93 78 
0.414670 1.231815 -7.025003 94 78 65 
0.426497 1.230748 -7.018921 67 57 46 
0.440451 1.235710 -7.047219 45 42 33 
0.455072 1.242223 -7.084363 31 34 27 
0.467125 1.241568 -7.080627 28 32 24 
0.479328 1.241336 -7.079305 28 33 23 
0.491831 1.241874 -7.082372 31 37 26 
0.504100 1.241806 -7.081984 34 40 29 
0.516537 1.242148 -7.083935 36 42 31 
0.528851 1.242185 -7.084145 38 43 32 
0.541160 1.242207 -7.084270 40 44 34 
0.553586 1.242493 -7.085898 39 46 34 
0.565846 1.242402 -7.085382 38 46 34 
0.578188 1.242490 -7.085881 37 44 33 
0.590539 1.242591 -7.086462 37 44 33 
0.602887 1.242686 -7.087003 37 44 34 
0.615321 1.242949 -7.088500 37 43 34 
0.628320 1.244321 -7.096325 35 42 33 
0.641332 1.245664 -7.103987 33 41 32 
0.653963 1.246231 -7.107218 30 39 31 
0.667408 1.248300 -7.119020 28 36 29 
0.681140 1.250821 -7.133394 26 34 26 
0.697829 1.258585 -7.177671 25 31 22 
0.714702 1.266401 -7.222249 24 29 18 
0.730001 1.271209 -7.249667 24 27 15 
0.729792 1.249305 -7.124747 23 25 13 
0.740686 1.246822 -7.110590 22 24 14 
0.751731 1.244668 -7.098308 22 23 15 
0.763826 1.244297 -7.096188 22 23 16 
0.775968 1.244012 -7.094562 22 24 16 
0.788055 1.243650 -7.092499 21 23 14 
0.800360 1.243636 -7.092418 18 20 11 
0.812360 1.243157 -7.089689 16 19 9 
0.824638 1.243111 -7.089427 16 19 8 
0.836885 1.243021 -7.088909 18 21 9 
0.848178 1.241535 -7.080440 22 23 11 
0.860061 1.240945 -7.077073 28 28 13 
0.872709 1.241459 -7.080002 41 41 23 
-0.078094 1.561876 -8.996408 63 72 65 
-0.061150 1.528741 -8.805551 54 64 56 
-0.045807 1.526889 -8.794883 44 52 45 
-0.031168 1.558388 -8.976316 39 44 39 
-0.015741 1.574110 -9.066873 34 37 31 
0.000000 1.601071 -9.222170 24 25 19 
0.015701 1.570125 -9.043922 15 14 9 
0.031367 1.568367 -9.033792 12 10 4 
0.047170 1.572339 -9.056671 11 11 4 
0.062724 1.568090 -9.032199 13 16 9 
0.088755 1.479255 -8.520509 23 28 20 
0.103165 1.473779 -8.488969 26 29 23 
0.117470 1.468381 -8.457872 27 30 26 
0.131861 1.465122 -8.439102 30 32 29 
0.147406 1.474061 -8.490590 30 33 32 
0.163105 1.482773 -8.540774 30 33 31 
0.175698 1.464147 -8.433488 26 28 25 
0.188326 1.448658 -8.344269 20 22 18 
0.202147 1.443905 -8.316892 16 17 12 
0.218898 1.459317 -8.405665 15 13 8 
0.233205 1.457532 -8.395387 17 13 8 
0.240962 1.417424 -8.164365 22 16 9 
0.244629 1.359047 -7.828113 28 20 13 
0.253702 1.335275 -7.691184 38 26 18 
0.260309 1.301543 -7.496886 49 33 21 
0.266541 1.269245 -7.310850 58 40 25 
0.278677 1.266714 -7.296270 66 45 29 
0.290921 1.264876 -7.285684 78 55 38 
0.303347 1.263946 -7.280328 92 65 47 
0.314492 1.257968 -7.245897 105 73 55 
0.326129 1.254341 -7.225003 113 79 61 
0.337913 1.251529 -7.208804 122 86 68 
0.349307 1.247526 -7.185751 130 92 72 
0.361269 1.245754 -7.175546 132 94 75 
0.373643 1.245475 -7.173938 130 94 75 
0.386089 1.245449 -7.173789 124 93 75 
0.397526 1.242270 -7.155474 112 88 72 
0.404400 1.225456 -7.058626 93 76 62 
0.414630 1.219501 -7.024325 65 56 44 
0.429391 1.226831 -7.066547 41 38 28 
0.442802 1.230006 -7.084836 30 31 24 
0.455093 1.229980 -7.084686 27 29 24 
0.467128 1.229285 -7.080681 27 30 24 
0.479333 1.229059 -7.079382 28 31 23 
0.491834 1.229586 -7.082413 31 34 25 
0.504106 1.229527 -7.082077 35 38 29 
0.516543 1.229864 -7.084013 36 40 32 
0.528856 1.229898 -7.084212 37 40 33 
0.541162 1.229914 -7.084304 37 41 34 
0.553591 1.230202 -7.085962 38 44 36 
0.565847 1.230103 -7.085392 38 44 36 
0.578189 1.230189 -7.085889 36 42 34 
0.590541 1.230294 -7.086491 36 40 32 
0.602892 1.230391 -7.087053 36 39 33 
0.615334 1.230667 -7.088645 36 38 33 
0.628453 1.232262 -7.097828 34 36 31 
0.642029 1.234671 -7.111705 31 34 27 
0.655495 1.236783 -7.123869 27 32 24 
0.670082 1.240892 -7.147539 25 30 21 
0.684505 1.244554 -7.168631 23 28 18 
0.701579 1.252820 -7.216241 21 26 15 
0.718614 1.260727 -7.261785 20 24 12 
0.737328 1.271254 -7.322425 18 22 9 
0.730874 1.238770 -7.135315 17 20 7 
0.741134 1.235224 -7.114888 17 20 8 
0.751863 1.232562 -7.099556 17 20 10 
0.763904 1.232103 -7.096914 19 20 11 
0.776032 1.231797 -7.095150 19 21 12 
0.788319 1.231749 -7.094872 16 18 7 
0.800531 1.231586 -7.093937 14 16 4 
0.812400 1.230910 -7.090039 14 16 3 
0.824656 1.230830 -7.089583 15 18 3 
0.836904 1.230742 -7.089071 17 19 4 
0.848168 1.229229 -7.080359 23 24 7 
0.859882 1.228402 -7.075599 35 35 15 
0.875146 1.232600 -7.099777 65 63 41 
-0.076920 1.523018 -8.861193 74 82 72 
-0.060854 1.506132 -8.762952 63 72 62 
-0.045788 1.511017 -8.791373 49 56 49 
-0.031169 1.542851 -8.976589 40 45 40 
-0.015742 1.558477 -9.067505 33 35 32 
0.000000 1.585175 -9.222836 23 22 19 
0.015705 1.554821 -9.046231 14 13 8 
0.031381 1.553369 -9.037786 10 8 2 
0.047187 1.557187 -9.059995 9 7 3 
0.062862 1.555823 -9.052062 9 9 5 
0.078429 1.552886 -9.034972 9 11 6 
0.093919 1.549658 -9.016194 13 14 8 
0.109337 1.546331 -8.996835 14 16 10 
0.124825 1.544710 -8.987402 13 16 11 
0.140108 1.541185 -8.966897 15 17 14 
0.153242 1.517101 -8.826767 19 22 21 
0.167056 1.503500 -8.747633 21 24 23 
0.178322 1.471153 -8.559435 19 22 20 
0.189247 1.441188 -8.385092 15 19 16 
0.203354 1.438004 -8.366566 10 14 11 
0.219874 1.451166 -8.443148 9 11 8 
0.234357 1.450086 -8.436863 11 11 7 
0.244257 1.422437 -8.275995 15 12 8 
0.251901 1.385455 -8.060828 21 15 8 
0.256582 1.336925 -7.778471 32 23 14 
0.260391 1.288937 -7.499269 49 34 22 
0.266424 1.255998 -7.307623 61 43 28 
0.278384 1.252726 -7.288589 70 50 33 
0.290866 1.251989 -7.284302 81 58 40 
0.303304 1.251128 -7.279293 94 68 49 
0.314408 1.245057 -7.243970 107 76 59 
0.326078 1.241606 -7.223888 115 82 65 
0.337891 1.238934 -7.208342 123 88 72 
0.349312 1.235068 -7.185849 128 91 76 
0.361276 1.233322 -7.175694 127 92 77 
0.373623 1.232957 -7.173568 120 88 74 
0.383782 1.225627 -7.130920 104 79 65 
0.395733 1.224297 -7.123185 81 65 52 
0.402782 1.208345 -7.030372 58 49 38 
0.416799 1.213620 -7.061060 38 34 24 
0.430665 1.218166 -7.087514 27 27 18 
0.442863 1.217872 -7.085803 25 26 20 
0.455101 1.217703 -7.084815 26 27 22 
0.467133 1.217005 -7.080757 27 28 23 
0.479341 1.216787 -7.079491 27 29 24 
0.491839 1.217302 -7.082482 29 32 26 
0.504116 1.217255 -7.082211 34 36 31 
0.516552 1.217586 -7.084136 36 40 35 
0.528861 1.217611 -7.084281 35 40 35 
0.541164 1.217620 -7.084335 35 39 34 
0.553598 1.217915 -7.086051 37 41 35 
0.565848 1.217804 -7.085404 38 42 36 
0.578189 1.217888 -7.085895 37 41 33 
0.590542 1.217993 -7.086502 36 38 31 
0.602894 1.218091 -7.087076 35 37 30 
0.615341 1.218375 -7.088726 35 36 30 
0.628675 1.220370 -7.100332 31 33 25 
0.644800 1.227599 -7.142395 26 27 19 
0.659595 1.232074 -7.168433 23 25 15 
0.676072 1.239466 -7.211438 21 24 12 
0.690308 1.242554 -7.229403 19 22 10 
0.705195 1.246684 -7.253434 18 21 9 
0.722300 1.254520 -7.299028 16 20 7 
0.741142 1.265053 -7.360305 14 18 5 
0.731290 1.227080 -7.139372 12 17 4 
0.741426 1.223354 -7.117694 12 17 4 
0.751920 1.220329 -7.100099 14 18 6 
0.763942 1.219843 -7.097270 16 18 8 
0.776086 1.219563 -7.095640 16 17 10 
0.788346 1.219472 -7.095112 14 15 8 
0.800560 1.219315 -7.094197 14 16 8 
0.812411 1.218616 -7.090132 15 17 6 
0.824661 1.218529 -7.089623 16 18 4 
0.836919 1.218455 -7.089192 20 22 5 
0.847212 1.215564 -7.072375 33 33 13 
0.855879 1.210458 -7.042665 60 58 35 
-0.135540 1.475885 -8.674589 71 75 66 
-0.122627 1.502180 -8.829140 71 76 67 
-0.105155 1.472166 -8.652729 74 80 69 
-0.090343 1.475607 -8.672957 70 78 67 
-0.075898 1.487606 -8.743483 65 74 62 
-0.060847 1.490749 -8.761954 62 71 59 
-0.045783 1.495585 -8.790375 53 60 50 
-0.031189 1.528263 -8.982441 45 50 43 
-0.015768 1.545290 -9.082521 38 41 36 
0.000000 1.569476 -9.224674 25 26 23 
0.015718 1.540375 -9.053634 15 15 12 
0.031409 1.539065 -9.045934 10 9 7 
0.047196 1.541723 -9.061557 9 8 5 
0.062869 1.540302 -9.053205 8 9 4 
0.078446 1.537551 -9.037033 8 9 3 
0.093971 1.534854 -9.021181 9 10 3 
0.109459 1.532426 -9.006915 9 11 3 
0.124914 1.530193 -8.993789 8 11 4 
0.140262 1.527293 -8.976746 9 12 6 
0.154486 1.513965 -8.898407 13 16 12 
0.167380 1.491202 -8.764616 18 20 17 
0.178498 1.457731 -8.567891 18 20 17 
0.190007 1.432361 -8.418777 12 16 12 
0.204046 1.428325 -8.395054 8 11 7 
0.220144 1.438277 -8.453547 7 10 6 
0.234777 1.438010 -8.451977 8 10 5 
0.245585 1.415727 -8.321006 11 11 4 
0.253627 1.380859 -8.116072 16 13 5 
0.257294 1.327093 -7.800060 29 22 11 
0.260575 1.276816 -7.504552 46 34 21 
0.266379 1.243100 -7.306386 62 45 30 
0.278107 1.238841 -7.281349 74 54 38 
0.290621 1.238298 -7.278157 85 63 46 
0.303067 1.237522 -7.273597 99 73 54 
0.314340 1.232213 -7.242397 109 80 63 
0.326066 1.229017 -7.223609 115 84 68 
0.337889 1.226412 -7.208298 120 89 74 
0.349342 1.222698 -7.186471 121 91 76 
0.361613 1.222002 -7.182381 114 87 72 
0.371862 1.214750 -7.139757 95 73 59 
0.380215 1.201969 -7.064636 69 53 40 
0.392386 1.201683 -7.062955 45 36 24 
0.405312 1.203653 -7.074531 30 27 17 
0.418993 1.207685 -7.098232 21 22 13 
0.430883 1.206473 -7.091105 19 21 14 
0.442886 1.205634 -7.086173 22 24 18 
0.455112 1.205431 -7.084980 24 26 22 
0.467141 1.204733 -7.080879 26 28 25 
0.479350 1.204520 -7.079627 27 30 26 
0.491848 1.205028 -7.082615 29 32 29 
0.504125 1.204983 -7.082346 33 35 33 
0.516561 1.205308 -7.084260 35 38 36 
0.528869 1.205328 -7.084379 33 38 35 
0.541172 1.205338 -7.084435 32 36 34 
0.553667 1.205763 -7.086936 32 36 31 
0.565938 1.205693 -7.086524 32 36 29 
0.578222 1.205654 -7.086294 32 35 28 
0.590583 1.205774 -7.086999 30 33 25 
0.602921 1.205841 -7.087393 30 32 25 
0.615490 1.206360 -7.090441 29 31 23 
0.629403 1.209440 -7.108548 26 28 18 
0.646299 1.218025 -7.159007 21 23 12 
0.661763 1.223638 -7.191996 19 20 8 
0.678466 1.231290 -7.236972 17 19 7 
0.691067 1.231356 -7.237357 17 19 7 
0.706102 1.235679 -7.262764 16 19 6 
0.723590 1.244068 -7.312072 14 17 5 
0.742025 1.253766 -7.369074 12 17 4 
0.731345 1.214776 -7.139906 13 17 4 
0.741445 1.211027 -7.117875 12 17 4 
0.751929 1.208017 -7.100180 13 17 6 
0.763960 1.207549 -7.097431 13 16 7 
0.776097 1.207261 -7.095740 14 16 9 
0.788357 1.207171 -7.095211 15 16 10 
0.800612 1.207076 -7.094652 18 19 12 
0.812754 1.206816 -7.093122 27 27 17 
0.824948 1.206640 -7.092088 33 33 20 
0.835533 1.204150 -7.077455 45 45 28 
-0.161104 1.562712 -9.279611 103 111 105 
-0.137424 1.481123 -8.795122 78 88 82 
-0.123749 1.500451 -8.909893 60 69 62 
-0.110504 1.531269 -9.092898 53 61 53 
-0.032360 1.569472 -9.319754 36 42 32 
-0.015922 1.544459 -9.171221 31 36 28 
0.000000 1.553463 -9.224690 21 24 19 
0.015723 1.525149 -9.056555 13 15 13 
0.031432 1.524474 -9.052547 10 11 11 
0.047218 1.526715 -9.065852 9 10 9 
0.062882 1.524882 -9.054969 7 9 6 
0.078455 1.522033 -9.038050 7 10 4 
0.093978 1.519303 -9.021843 7 10 2 
0.109470 1.516938 -9.007800 7 10 0 
0.124928 1.514750 -8.994802 6 8 0 
0.140285 1.511962 -8.978248 7 8 1 
0.154838 1.501927 -8.918656 10 12 5 
0.167911 1.480674 -8.792454 15 16 10 
0.179319 1.449493 -8.607302 16 17 10 
0.192041 1.432920 -8.508883 10 12 5 
0.204996 1.420332 -8.434135 5 9 2 
0.220459 1.425637 -8.465637 6 9 3 
0.235120 1.425418 -8.464336 7 10 2 
0.246179 1.404666 -8.341108 9 10 1 
0.254828 1.373242 -8.154508 13 11 1 
0.258354 1.318967 -7.832217 25 20 8 
0.260915 1.265439 -7.514357 43 32 18 
0.266344 1.230254 -7.305425 59 45 29 
0.278080 1.226079 -7.280635 73 56 39 
0.290607 1.225604 -7.277812 86 65 47 
0.303059 1.224865 -7.273427 99 73 55 
0.314332 1.219609 -7.242217 107 81 62 
0.326062 1.216463 -7.223535 112 85 68 
0.337898 1.213930 -7.208491 114 88 72 
0.349981 1.212434 -7.199610 108 85 69 
0.361931 1.210597 -7.188698 87 68 53 
0.388097 1.214367 -7.211089 37 29 15 
0.397576 1.205153 -7.156375 22 18 6 
0.408772 1.201541 -7.134922 14 15 5 
0.419574 1.197021 -7.108084 12 15 8 
0.430912 1.194243 -7.091587 15 20 13 
0.442902 1.193374 -7.086426 20 25 19 
0.455130 1.193179 -7.085270 23 28 24 
0.467151 1.192466 -7.081033 25 30 26 
0.479358 1.192249 -7.079748 26 31 27 
0.491861 1.192763 -7.082801 26 31 28 
0.504179 1.192813 -7.083096 28 32 30 
0.516754 1.193456 -7.086914 29 32 31 
0.529449 1.194338 -7.092150 26 29 28 
0.541706 1.194216 -7.091425 24 28 25 
0.554185 1.194576 -7.093565 24 29 24 
0.567805 1.197329 -7.109910 21 26 19 
0.589544 1.216717 -7.225044 18 23 15 
0.605349 1.223309 -7.264183 16 19 11 
0.617268 1.221939 -7.256050 16 18 11 
0.633317 1.228635 -7.295810 16 19 11 
0.643312 1.223554 -7.265639 16 19 9 
0.657206 1.225941 -7.279815 13 15 5 
0.672334 1.230497 -7.306871 12 12 2 
0.688157 1.236134 -7.340340 11 12 2 
0.697715 1.230516 -7.306979 12 13 2 
0.709935 1.229708 -7.302186 13 14 2 
0.730527 1.243177 -7.382164 10 12 1 
0.745718 1.247149 -7.405753 10 13 1 
0.731416 1.202498 -7.140607 13 16 3 
0.743506 1.202002 -7.137660 20 23 10 
-0.158836 1.524825 -9.148951 109 121 115 
-0.140672 1.500497 -9.002980 99 112 108 
-0.124672 1.496063 -8.976379 73 85 81 
-0.110496 1.515379 -9.092273 53 63 59 
-0.033000 1.583996 -9.503975 23 29 18 
-0.016251 1.560138 -9.360827 19 24 15 
0.000000 1.535265 -9.211589 13 18 10 
0.015753 1.512270 -9.073622 9 13 8 
0.031445 1.509363 -9.056177 8 12 9 
0.047225 1.511193 -9.067158 8 11 9 
0.062891 1.509380 -9.056277 7 10 7 
0.078462 1.506469 -9.038815 7 10 5 
0.093982 1.503716 -9.022297 6 9 2 
0.109477 1.501397 -9.008382 5 8 1 
0.124930 1.499161 -8.994964 6 7 1 
0.140286 1.496385 -8.978310 7 8 1 
0.154934 1.487369 -8.924214 8 8 2 
0.169154 1.476252 -8.857511 10 10 3 
0.182793 1.462340 -8.774042 10 11 2 
0.192825 1.423938 -8.543628 7 9 1 
0.205315 1.407875 -8.447251 3 7 0 
0.221131 1.415235 -8.491412 3 6 0 
0.235556 1.413339 -8.480032 4 8 1 
0.246519 1.392105 -8.352631 7 9 0 
0.255308 1.361641 -8.169846 10 10 0 
0.262646 1.327055 -7.962330 19 16 3 
0.268442 1.288521 -7.731125 35 28 10 
0.265992 1.215964 -7.295783 53 41 22 
0.277115 1.209230 -7.255382 67 50 30 
0.289749 1.209389 -7.256334 79 58 37 
0.302575 1.210301 -7.261808 91 68 45 
0.314226 1.206627 -7.239760 100 76 54 
0.326055 1.203897 -7.223382 105 83 62 
0.338240 1.202630 -7.215783 102 81 61 
0.357068 1.224232 -7.345390 81 64 47 
0.356046 1.178634 -7.071804 51 38 23 
0.369641 1.182851 -7.097104 31 22 8 
0.388358 1.202656 -7.215934 19 15 2 
0.398342 1.195026 -7.170158 13 12 2 
0.408793 1.189216 -7.135297 11 13 4 
0.419583 1.184705 -7.108230 12 16 9 
0.430930 1.181978 -7.091870 17 21 16 
0.442912 1.181098 -7.086585 20 27 21 
0.455136 1.180894 -7.085367 22 29 22 
0.467152 1.180172 -7.081034 22 29 22 
0.479357 1.179957 -7.079740 21 27 20 
0.491786 1.180285 -7.081712 20 25 19 
0.503869 1.179790 -7.078740 20 25 19 
0.516089 1.179633 -7.077797 20 23 19 
0.528749 1.180463 -7.082779 19 21 18 
0.541542 1.181547 -7.089279 19 23 19 
0.554180 1.182251 -7.093503 25 30 25 
0.567800 1.184974 -7.109846 21 26 19 
0.594602 1.214506 -7.287038 9 15 7 
0.646417 1.292835 -7.757009 4 8 2 
0.660761 1.294552 -7.767313 4 7 1 
0.673136 1.292420 -7.754522 5 9 2 
0.679076 1.278260 -7.669560 6 9 2 
0.690823 1.275366 -7.652195 4 5 1 
0.701528 1.270692 -7.624151 3 3 0 
0.707531 1.257832 -7.546993 4 4 0 
0.717612 1.252558 -7.515351 5 5 0 
0.723632 1.240512 -7.443074 7 7 0 
0.736494 1.240411 -7.442465 6 7 0 
0.749694 1.240873 -7.445237 7 9 0 
0.731770 1.190676 -7.144056 17 19 7 
-0.178641 1.542810 -9.354300 68 82 74 
-0.156039 1.482371 -8.987851 88 102 95 
-0.140670 1.484849 -9.002875 98 111 105 
-0.125127 1.485888 -9.009172 88 100 96 
-0.110128 1.494597 -9.061975 64 75 69 
-0.032923 1.563837 -9.481789 18 23 13 
-0.016138 1.533109 -9.295482 13 17 8 
0.000000 1.517526 -9.200997 9 12 5 
0.015763 1.497459 -9.079329 7 10 5 
0.031456 1.494167 -9.059368 6 10 7 
0.047229 1.495595 -9.068028 7 11 8 
0.062896 1.493786 -9.057062 7 10 6 
0.078467 1.490876 -9.039415 6 9 4 
0.093984 1.488082 -9.022476 5 8 1 
0.109478 1.485767 -9.008441 4 6 0 
0.124928 1.483517 -8.994801 4 5 0 
0.140284 1.480776 -8.978181 6 7 1 
0.154958 1.472099 -8.925571 6 6 2 
0.169427 1.463237 -8.871838 5 5 1 
0.183167 1.450075 -8.792033 6 6 1 
0.192975 1.410204 -8.550292 6 7 1 
0.205454 1.394155 -8.452982 3 5 0 
0.221297 1.401546 -8.497795 2 4 0 
0.235859 1.400414 -8.490929 3 5 0 
0.247095 1.380825 -8.372162 4 6 0 
0.255723 1.349650 -8.183140 7 8 0 
0.263957 1.319784 -8.002061 14 13 1 
0.271912 1.291580 -7.831051 28 23 6 
0.265900 1.202880 -7.293252 47 37 18 
0.276609 1.194447 -7.242121 59 45 24 
0.289058 1.193936 -7.239024 70 52 28 
0.302283 1.196535 -7.254783 82 61 37 
0.314231 1.194078 -7.239884 90 70 47 
0.326254 1.192082 -7.227781 92 75 54 
0.346253 1.218297 -7.386724 76 62 44 
0.370830 1.258173 -7.628503 47 37 21 
0.367671 1.204440 -7.302712 22 15 4 
0.384032 1.216103 -7.373423 13 9 0 
0.389321 1.193079 -7.233829 11 10 0 
0.398409 1.182777 -7.171365 10 12 2 
0.408842 1.176969 -7.136149 11 16 6 
0.419647 1.172542 -7.109308 15 19 12 
0.430942 1.169699 -7.092068 18 22 17 
0.442951 1.168897 -7.087210 19 23 18 
0.455354 1.169152 -7.088752 17 23 16 
0.467746 1.169364 -7.090042 15 21 11 
0.479928 1.169054 -7.088161 14 20 8 
0.492140 1.168834 -7.086823 15 19 6 
0.503920 1.167620 -7.079463 16 19 8 
0.516092 1.167351 -7.077832 21 23 13 
0.528746 1.168161 -7.082744 22 22 15 
0.541142 1.168375 -7.084040 29 30 26 
0.551992 1.165316 -7.065496 43 48 46 
0.564479 1.165772 -7.068262 36 42 39 
0.594477 1.201603 -7.285509 12 17 13 
0.647147 1.280812 -7.765767 1 4 1 
0.662479 1.284398 -7.787507 0 1 0 
0.678723 1.289575 -7.818894 0 1 0 
0.687864 1.281316 -7.768822 0 1 0 
0.693925 1.267748 -7.686553 0 0 0 
0.703064 1.260208 -7.640841 0 0 0 
0.709454 1.248114 -7.567510 1 1 0 
0.721146 1.245616 -7.552366 1 1 0 
0.728869 1.236474 -7.496939 2 3 0 
0.737684 1.229474 -7.454493 5 5 0 
0.751156 1.230341 -7.459754 9 8 1 
0.740414 1.192192 -7.228448 28 26 16 
-0.178436 1.524814 -9.343544 63 78 72 
-0.157515 1.480637 -9.072842 64 79 73 
-0.141259 1.475375 -9.040593 74 88 81 
-0.125222 1.471359 -9.015988 82 93 86 
-0.110141 1.479031 -9.062996 74 85 75 
-0.094939 1.487380 -9.114160 56 66 54 
-0.032842 1.543558 -9.458401 14 19 7 
-0.016128 1.516025 -9.289687 11 15 4 
0.000000 1.501381 -9.199949 8 11 3 
0.015764 1.481842 -9.080226 6 10 5 
0.031459 1.478567 -9.060155 5 10 7 
0.047231 1.479920 -9.068443 6 11 8 
0.062899 1.478117 -9.057399 7 10 6 
0.078469 1.475219 -9.039643 6 10 5 
0.093983 1.472408 -9.022414 5 9 2 
0.109476 1.470108 -9.008321 4 7 1 
0.124925 1.467869 -8.994601 3 5 0 
0.140279 1.465131 -8.977824 4 5 0 
0.154980 1.456810 -8.926837 3 5 1 
0.169450 1.448031 -8.873038 4 4 0 
0.183207 1.435119 -8.793922 5 5 1 
0.193057 1.395947 -8.553891 5 6 1 
0.205522 1.379931 -8.455745 4 5 0 
0.221422 1.387576 -8.502596 4 5 0 
0.235952 1.386218 -8.494273 4 5 0 
0.247219 1.366974 -8.376349 4 5 0 
0.255936 1.336554 -8.189945 5 6 0 
0.265055 1.311323 -8.035343 9 9 0 
0.273866 1.287170 -7.887339 21 19 6 
0.265900 1.190218 -7.293251 41 34 18 
0.276564 1.181684 -7.240959 54 43 24 
0.289016 1.181197 -7.237976 64 48 27 
0.302273 1.183901 -7.254544 76 58 35 
0.314332 1.181887 -7.242202 80 64 43 
0.327390 1.183641 -7.252952 71 59 40 
0.378421 1.317466 -8.072984 46 37 22 
0.367393 1.233392 -7.557806 22 16 5 
0.380056 1.231904 -7.548689 10 6 0 
0.384673 1.205309 -7.385724 7 6 0 
0.389448 1.180906 -7.236188 9 11 2 
0.398650 1.171033 -7.175691 12 16 5 
0.408902 1.164752 -7.137200 13 18 8 
0.419673 1.160272 -7.109750 14 18 10 
0.431164 1.157984 -7.095734 14 17 11 
0.443523 1.158087 -7.096366 12 16 12 
0.455714 1.157760 -7.094358 12 15 11 
0.467801 1.157193 -7.090885 11 15 8 
0.479931 1.156757 -7.088215 15 19 8 
0.492248 1.156783 -7.088371 22 24 12 
0.502982 1.153179 -7.066291 36 38 26 
0.514747 1.152054 -7.059393 51 52 41 
0.527037 1.152127 -7.059842 44 44 36 
0.539281 1.152101 -7.059684 50 52 48 
0.551892 1.152840 -7.064214 68 74 72 
0.564239 1.153010 -7.065256 56 62 60 
0.591685 1.183369 -7.251284 20 26 23 
0.647502 1.268025 -7.770028 2 6 2 
0.662617 1.271142 -7.789125 0 1 0 
0.678981 1.276484 -7.821863 0 0 0 
0.688164 1.268381 -7.772206 0 0 0 
0.694188 1.254879 -7.689472 0 0 0 
0.703365 1.247478 -7.644121 0 0 0 
0.710096 1.236092 -7.574353 0 0 0 
0.721824 1.233663 -7.559465 0 0 0 
0.730196 1.225686 -7.510588 0 1 0 
0.739194 1.219022 -7.469749 3 3 0 
0.751703 1.218277 -7.465188 9 8 1 
-0.190693 1.477871 -9.153266 108 125 121 
-0.174888 1.478601 -9.157784 80 96 93 
-0.157515 1.464890 -9.072868 67 81 79 
-0.141782 1.465076 -9.074017 62 75 71 
-0.126245 1.467598 -9.089640 63 74 67 
-0.110405 1.466815 -9.084789 66 75 66 
-0.094925 1.471335 -9.112786 62 71 59 
-0.079269 1.474399 -9.131763 52 60 48 
-0.032836 1.526888 -9.456856 13 17 6 
-0.016123 1.499439 -9.286850 9 13 2 
0.000000 1.485273 -9.199109 6 11 2 
0.015766 1.466228 -9.081156 5 11 4 
0.031462 1.462992 -9.061112 3 10 6 
0.047234 1.464260 -9.068965 4 10 7 
0.062902 1.462460 -9.057818 6 10 6 
0.078470 1.459544 -9.039754 6 10 6 
0.093981 1.456705 -9.022175 6 9 6 
0.109474 1.454439 -9.008137 5 8 4 
0.124922 1.452223 -8.994411 3 6 2 
0.140277 1.449525 -8.977702 2 5 1 
0.154988 1.441392 -8.927330 2 5 1 
0.169468 1.432778 -8.873977 4 5 1 
0.183244 1.420140 -8.795704 6 6 2 
0.193106 1.381448 -8.556067 5 6 2 
0.205572 1.365584 -8.457813 4 4 1 
0.221484 1.373200 -8.504978 5 5 1 
0.236041 1.371990 -8.497487 5 6 1 
0.247378 1.353304 -8.381753 5 6 2 
0.256022 1.322781 -8.192708 5 6 2 
0.265251 1.298331 -8.041279 7 7 2 
0.274166 1.274873 -7.895985 19 16 7 
0.265913 1.177614 -7.293611 39 32 20 
0.276544 1.169026 -7.240417 54 43 28 
0.288993 1.168537 -7.237391 66 50 33 
0.302270 1.171296 -7.254478 73 56 37 
0.314368 1.169450 -7.243043 69 55 37 
0.335024 1.198357 -7.422080 50 39 25 
0.375297 1.292689 -8.006333 24 17 7 
0.386336 1.283188 -7.947487 10 6 1 
0.380417 1.219959 -7.555873 7 6 1 
0.385268 1.194330 -7.397140 9 10 2 
0.390154 1.170463 -7.249320 12 15 6 
0.398729 1.158807 -7.177129 12 16 7 
0.409005 1.152649 -7.138988 10 15 7 
0.419777 1.148213 -7.111514 10 14 8 
0.431177 1.145699 -7.095939 13 15 11 
0.443552 1.145844 -7.096838 15 18 15 
0.456119 1.146461 -7.100662 18 21 19 
0.470565 1.151647 -7.132781 23 25 22 
0.481478 1.148140 -7.111060 32 35 30 
0.491836 1.143520 -7.082445 45 48 42 
0.539975 1.224820 -7.585983 68 71 64 
0.549497 1.216743 -7.535954 79 82 75 
0.562704 1.217011 -7.537615 71 73 67 
0.575883 1.217207 -7.538833 78 82 78 
0.589044 1.217359 -7.539769 93 100 97 
0.602107 1.217303 -7.539426 79 85 83 
0.586081 1.159693 -7.182614 32 38 34 
0.647843 1.255196 -7.774117 3 7 3 
0.662796 1.257961 -7.791240 0 1 0 
0.679203 1.263318 -7.824422 0 0 0 
0.688405 1.255327 -7.774929 0 0 0 
0.694476 1.242044 -7.692661 0 0 0 
0.703683 1.234765 -7.647578 0 0 0 
0.710466 1.223580 -7.578301 0 0 0 
0.722213 1.221196 -7.563536 0 0 0 
0.730836 1.213710 -7.517170 1 1 0 
0.739918 1.207234 -7.477063 3 4 0 
0.752657 1.206847 -7.474664 9 9 2 
-0.190693 1.461980 -9.153267 103 121 119 
-0.175191 1.465232 -9.173625 89 106 105 
-0.158713 1.460157 -9.141855 84 99 99 
-0.142431 1.455960 -9.115574 76 89 88 
-0.126313 1.452594 -9.094502 69 79 78 
-0.110412 1.451127 -9.085320 62 71 67 
-0.094927 1.455555 -9.113040 60 67 62 
-0.079275 1.458663 -9.132496 58 64 59 
-0.063506 1.460627 -9.144798 52 57 52 
-0.047718 1.463366 -9.161942 40 44 38 
-0.033040 1.519841 -9.515524 23 27 20 
-0.016117 1.482783 -9.283512 12 15 7 
0.000000 1.469295 -9.199062 7 11 3 
0.015767 1.450601 -9.082023 5 11 3 
0.031467 1.447459 -9.062353 3 11 4 
0.047241 1.448714 -9.070209 3 10 4 
0.062908 1.446879 -9.058722 5 9 5 
0.078473 1.443912 -9.040146 5 10 7 
0.093984 1.441093 -9.022493 6 9 9 
0.109485 1.438942 -9.009031 6 8 9 
0.124937 1.436781 -8.995499 4 6 7 
0.140291 1.434088 -8.978636 3 5 5 
0.155020 1.426180 -8.929125 3 6 4 
0.169505 1.417678 -8.875897 4 7 3 
0.183292 1.405242 -8.798035 7 8 3 
0.193256 1.367661 -8.562750 8 8 5 
0.205822 1.352545 -8.468109 8 8 5 
0.221977 1.361460 -8.523921 9 9 6 
0.236376 1.359165 -8.509553 8 9 5 
0.248870 1.346823 -8.432285 10 10 8 
0.262761 1.343000 -8.408350 14 14 11 
0.272265 1.318334 -8.253920 16 14 11 
0.277629 1.277093 -7.995713 26 19 14 
0.265949 1.165110 -7.294600 42 31 23 
0.276387 1.155799 -7.236307 60 46 35 
0.288893 1.155571 -7.234879 71 53 41 
0.302274 1.158716 -7.254570 69 52 37 
0.319186 1.174605 -7.354052 54 39 25 
0.381128 1.348605 -8.443440 31 21 10 
0.384989 1.311813 -8.213092 14 7 1 
0.386745 1.270733 -7.955896 8 6 2 
0.385998 1.224547 -7.666727 11 11 7 
0.391763 1.201408 -7.521857 13 14 10 
0.390759 1.159672 -7.260552 13 17 11 
0.399019 1.147179 -7.182340 11 16 12 
0.409330 1.141163 -7.144671 12 17 14 
0.425152 1.150411 -7.202574 18 22 20 
0.446320 1.173183 -7.345146 28 30 29 
0.461040 1.178213 -7.376639 35 39 37 
0.484224 1.204016 -7.538189 45 50 47 
0.508411 1.230890 -7.706442 54 60 56 
0.521642 1.230541 -7.704255 55 61 58 
0.532785 1.225405 -7.672100 58 64 62 
0.539974 1.211648 -7.585971 69 75 73 
0.549486 1.203636 -7.535808 75 81 79 
0.562275 1.203008 -7.531875 77 82 80 
0.575621 1.203570 -7.535398 86 92 89 
0.589041 1.204261 -7.539724 98 103 100 
0.602106 1.204213 -7.539417 85 90 86 
0.586011 1.147084 -7.181746 39 42 38 
0.648627 1.243202 -7.783527 6 8 4 
0.663128 1.245057 -7.795140 1 1 0 
0.679609 1.250481 -7.829095 1 0 0 
0.688687 1.242337 -7.778109 0 0 0 
0.694789 1.229242 -7.696122 0 0 0 
0.704018 1.222069 -7.651217 0 0 0 
0.710840 1.211061 -7.582298 0 0 0 
0.722604 1.208719 -7.567633 0 0 0 
0.731473 1.201705 -7.523720 0 1 0 
0.740396 1.195025 -7.481893 3 4 0 
0.754102 1.196161 -7.489009 7 8 1 
-0.207700 1.453897 -9.202685 107 125 125 
-0.191841 1.454791 -9.208347 86 104 105 
-0.175198 1.449365 -9.174002 90 108 108 
-0.160030 1.456274 -9.217731 97 114 115 
-0.144056 1.456565 -9.219577 98 113 114 
-0.128196 1.458235 -9.230146 91 103 104 
-0.112040 1.456525 -9.219321 77 87 87 
-0.094940 1.439929 -9.114273 62 70 71 
-0.079302 1.443296 -9.135588 50 57 57 
-0.063514 1.444940 -9.145991 46 52 51 
-0.047719 1.447481 -9.162080 41 46 44 
-0.032697 1.487725 -9.416808 30 35 32 
-0.016251 1.478865 -9.360728 19 22 19 
0.000000 1.455081 -9.210185 11 14 10 
0.015775 1.435489 -9.086171 8 11 6 
0.031476 1.432173 -9.065184 6 9 4 
0.047255 1.433414 -9.073035 5 7 2 
0.062922 1.431469 -9.060729 5 7 3 
0.078485 1.428433 -9.041512 7 8 6 
0.093990 1.425508 -9.022999 7 8 9 
0.109490 1.423373 -9.009482 7 8 9 
0.124954 1.421356 -8.996714 6 7 9 
0.140325 1.418843 -8.980810 5 8 7 
0.155057 1.411017 -8.931273 5 8 5 
0.169567 1.402779 -8.879127 7 9 4 
0.183375 1.390596 -8.802016 10 10 4 
0.194463 1.361238 -8.616186 16 14 9 
0.209816 1.363804 -8.632433 19 18 13 
0.223286 1.354603 -8.574192 16 16 11 
0.236829 1.346966 -8.525852 13 13 9 
0.250030 1.338396 -8.471604 16 15 12 
0.264276 1.336062 -8.456830 22 21 19 
0.277978 1.331368 -8.427119 26 23 22 
0.282147 1.283770 -8.125840 31 25 23 
0.266118 1.153177 -7.299229 45 35 30 
0.276193 1.142435 -7.231236 63 51 44 
0.288865 1.142900 -7.234181 69 56 46 
0.302542 1.147137 -7.260998 58 46 34 
0.352817 1.284255 -8.128912 35 24 13 
0.374954 1.312340 -8.306679 17 10 2 
0.385628 1.299708 -8.226727 10 5 0 
0.387632 1.259805 -7.974150 10 8 4 
0.387699 1.216574 -7.700513 14 14 10 
0.392005 1.189081 -7.526494 13 15 10 
0.390864 1.147376 -7.262510 12 17 12 
0.399854 1.137084 -7.197366 16 21 17 
0.432563 1.192825 -7.550187 24 29 26 
0.462012 1.236561 -7.827025 37 41 39 
0.474007 1.232419 -7.800807 48 50 49 
0.489658 1.237746 -7.834521 50 54 51 
0.485015 1.192876 -7.550511 51 55 51 
0.508491 1.217703 -7.707659 52 59 55 
0.521780 1.217486 -7.706287 52 59 57 
0.533874 1.214563 -7.687787 52 59 58 
0.566225 1.256743 -7.954769 54 61 60 
0.580297 1.257309 -7.958352 53 60 58 
0.594420 1.257959 -7.962463 52 57 54 
0.608495 1.258478 -7.965748 56 60 56 
0.622503 1.258839 -7.968034 60 64 58 
0.649025 1.283941 -8.126925 49 53 47 
0.649912 1.232124 -7.798941 4 5 2 
0.663525 1.232260 -7.799801 0 1 0 
0.680091 1.237765 -7.834645 1 1 0 
0.689169 1.229693 -7.783552 0 1 0 
0.695293 1.216763 -7.701709 0 1 0 
0.704370 1.209391 -7.655043 0 0 0 
