ply
format ascii 1.0
element vertex 1111
property float x
property float y
property float z
property uchar red
property uchar green
property uchar blue
end_header
45.653999 13.239659 -65.741760 133 127 91 
45.901627 13.278276 -65.933510 134 126 89 
46.110710 13.305578 -66.069077 134 127 88 
46.208218 13.300628 -66.044495 134 127 90 
46.338165 13.305017 -66.066292 134 126 91 
46.440342 13.301431 -66.048485 134 125 92 
46.549805 13.299945 -66.041107 133 124 92 
46.660343 13.298771 -66.035278 134 125 94 
46.825542 13.313145 -66.106651 136 126 95 
47.276577 13.375812 -66.417824 133 123 91 
47.392399 13.375957 -66.418549 133 122 91 
47.512051 13.377180 -66.424614 134 124 91 
47.597649 13.368832 -66.383163 134 125 89 
47.734718 13.374946 -66.413521 133 125 88 
47.861805 13.378239 -66.429878 131 125 86 
47.944206 13.369058 -66.384285 129 125 84 
48.081448 13.375175 -66.414658 128 125 85 
48.249386 13.389782 -66.487190 129 125 87 
48.398457 13.399096 -66.533440 131 124 87 
48.572315 13.415211 -66.613457 132 123 87 
48.604622 13.392247 -66.499435 132 121 86 
48.737625 13.397072 -66.523392 131 121 86 
48.861221 13.399295 -66.534431 131 121 87 
49.005970 13.407293 -66.574150 133 123 89 
49.155392 13.416531 -66.620010 134 124 91 
49.258583 13.413136 -66.603157 134 123 90 
49.360867 13.409510 -66.585152 133 122 88 
49.491367 13.413548 -66.605202 133 121 87 
49.611469 13.414757 -66.611206 132 122 87 
49.795082 13.433091 -66.702248 133 124 86 
49.937923 13.440369 -66.738388 132 125 84 
49.998154 13.425430 -66.664207 130 123 81 
50.097187 13.420956 -66.641983 131 122 78 
50.195091 13.416199 -66.618370 131 122 76 
50.322075 13.419220 -66.633369 132 121 76 
50.412380 13.412468 -66.599838 130 120 77 
50.584373 13.427431 -66.674141 130 119 78 
50.698853 13.427094 -66.672462 130 121 81 
50.723988 13.403150 -66.553574 131 121 84 
50.769806 13.384767 -66.462288 130 120 85 
50.890797 13.386241 -66.469612 130 120 84 
51.027443 13.391818 -66.497307 129 121 84 
51.161301 13.396638 -66.521240 129 122 83 
51.270084 13.394887 -66.512543 128 121 82 
51.390606 13.396203 -66.519073 128 121 82 
51.480339 13.389505 -66.485817 129 121 81 
51.742596 13.427609 -66.675026 128 120 79 
51.953037 13.452126 -66.796761 128 120 80 
52.057407 13.449130 -66.781883 129 119 82 
52.079395 13.424911 -66.661621 129 119 83 
52.054241 13.388674 -66.481689 130 118 85 
52.089424 13.368082 -66.379440 130 118 85 
52.215805 13.370934 -66.393608 130 118 84 
52.307140 13.364820 -66.363243 130 120 84 
52.269970 13.325970 -66.170334 129 120 86 
52.347134 13.316376 -66.122696 128 120 85 
52.512146 13.329123 -66.185989 127 120 85 
52.737190 13.357018 -66.324501 129 121 86 
52.806313 13.345387 -66.266747 129 120 86 
52.779774 13.309682 -66.089455 127 118 84 
52.882915 13.306765 -66.074966 124 117 82 
53.004120 13.308393 -66.083054 122 116 81 
53.092495 13.301792 -66.050278 123 116 81 
53.346451 13.336613 -66.223183 124 118 83 
53.470146 13.338789 -66.233986 124 118 83 
53.411396 13.295541 -66.019241 125 117 82 
53.475140 13.282904 -65.956490 126 117 81 
53.694492 13.308891 -66.085533 125 117 79 
53.889854 13.328834 -66.184555 124 116 78 
53.992668 13.325850 -66.169739 122 114 77 
54.076035 13.318089 -66.131203 122 114 76 
54.290230 13.342514 -66.252487 123 116 76 
54.473946 13.359361 -66.336136 125 117 75 
54.682823 13.382294 -66.450012 126 117 75 
54.719784 13.363148 -66.354942 125 116 74 
54.716770 13.334339 -66.211891 124 115 74 
54.777737 13.321211 -66.146698 125 116 75 
54.947823 13.334619 -66.213280 127 116 77 
54.993008 13.317722 -66.129379 129 115 77 
40.906796 12.612016 -63.169746 136 127 89 
41.144032 12.651239 -63.366211 136 126 90 
41.344421 12.678956 -63.505032 134 124 91 
41.522182 12.699603 -63.608448 134 123 93 
41.693947 12.718312 -63.702156 134 124 95 
41.886726 12.743316 -63.827393 133 124 95 
42.071987 12.765906 -63.940540 132 125 97 
42.358444 12.819002 -64.206482 132 127 100 
42.602081 12.858896 -64.406296 133 129 104 
42.758419 12.872299 -64.473427 133 130 105 
42.870071 12.872215 -64.473007 133 129 104 
42.947941 12.862014 -64.421913 133 127 102 
43.095863 12.872790 -64.475891 134 126 99 
43.823944 13.022619 -65.226341 132 127 93 
43.904007 13.012785 -65.177078 131 126 92 
44.029202 13.016344 -65.194908 132 126 93 
44.139366 13.015453 -65.190445 133 126 95 
44.251827 13.015244 -65.189392 133 126 97 
45.011074 13.104489 -65.636398 136 128 103 
45.138760 13.108479 -65.656380 135 127 102 
45.206730 13.095148 -65.589615 132 126 100 
45.347473 13.102913 -65.628502 132 127 98 
45.492474 13.111866 -65.673347 133 128 96 
45.683594 13.134033 -65.784378 134 128 93 
45.925694 13.170710 -65.968079 134 128 90 
46.128471 13.195955 -66.094528 135 127 87 
46.244221 13.196241 -66.095955 136 126 88 
46.390118 13.205108 -66.140366 136 125 88 
46.493114 13.201749 -66.123543 136 124 89 
46.580135 13.193881 -66.084137 135 123 91 
46.694321 13.193727 -66.083359 137 125 94 
46.849579 13.205151 -66.140579 138 127 97 
47.295868 13.265914 -66.444923 134 123 93 
47.412762 13.266344 -66.447083 133 122 93 
47.548244 13.271961 -66.475212 135 124 94 
47.661964 13.271491 -66.472862 136 126 93 
47.771889 13.269969 -66.465240 135 126 90 
47.890728 13.270925 -66.470024 133 125 87 
47.980068 13.263721 -66.433937 131 124 86 
48.130398 13.273371 -66.482277 131 123 86 
48.284821 13.284101 -66.536018 132 124 87 
48.421227 13.289836 -66.564743 132 125 88 
48.594574 13.305656 -66.643982 132 124 88 
48.648392 13.288754 -66.559319 132 123 88 
48.764275 13.288842 -66.559769 131 122 87 
48.886776 13.290730 -66.569221 131 122 87 
49.050365 13.303754 -66.634453 132 122 87 
49.208092 13.315130 -66.691437 133 123 88 
49.313686 13.312380 -66.677658 133 122 87 
49.385448 13.300530 -66.618309 133 122 87 
49.533394 13.309206 -66.661766 134 122 89 
49.661564 13.312540 -66.678459 134 123 89 
49.851822 13.332463 -66.778252 134 125 89 
49.973248 13.333929 -66.785591 133 125 86 
50.024460 13.316696 -66.699280 131 123 82 
50.117580 13.310674 -66.669113 131 121 78 
50.218021 13.306619 -66.648804 131 121 75 
50.347965 13.310382 -66.667648 131 121 75 
50.436989 13.303334 -66.632355 130 120 76 
50.611088 13.318707 -66.709351 130 120 77 
50.724529 13.318085 -66.706230 130 120 80 
50.758152 13.296555 -66.598396 131 121 82 
50.797478 13.276614 -66.498520 130 121 84 
50.915485 13.277281 -66.501854 130 120 85 
51.052441 13.282875 -66.529877 129 120 84 
51.205463 13.292615 -66.578659 128 120 82 
51.297504 13.286516 -66.548119 128 120 83 
51.450172 13.296112 -66.596176 130 120 85 
51.556614 13.293746 -66.584328 131 121 85 
51.795841 13.325552 -66.743637 130 119 82 
51.992661 13.346330 -66.847702 129 117 79 
52.094437 13.342673 -66.829391 129 118 79 
52.118603 13.319199 -66.711807 131 119 81 
52.139881 13.295092 -66.591064 132 118 81 
52.179470 13.275750 -66.494194 131 117 81 
52.302326 13.277633 -66.503624 131 117 80 
52.412498 13.276294 -66.496918 131 118 80 
52.391712 13.241861 -66.324455 131 119 82 
52.406677 13.216596 -66.197906 130 120 83 
52.579792 13.231238 -66.271248 130 120 83 
52.817341 13.261996 -66.425301 128 119 82 
52.916508 13.257949 -66.405029 128 117 82 
52.844254 13.211063 -66.170197 129 119 82 
52.994125 13.219792 -66.213913 127 120 81 
53.066841 13.209279 -66.161255 123 118 79 
53.158180 13.203436 -66.131989 122 118 79 
53.415279 13.238701 -66.308624 122 119 80 
53.531109 13.238876 -66.309502 122 119 80 
53.476654 13.197029 -66.099899 122 118 80 
53.526592 13.181067 -66.019951 125 119 83 
53.763283 13.211063 -66.170197 125 119 83 
53.944530 13.227337 -66.251709 124 117 82 
54.056103 13.226493 -66.247475 122 115 81 
54.135155 13.217713 -66.203499 122 116 79 
54.346809 13.241278 -66.321533 123 117 79 
54.512238 13.253505 -66.382767 124 117 77 
54.718945 13.275693 -66.493904 124 117 76 
54.761196 13.257974 -66.405151 123 116 75 
54.753742 13.228320 -66.256630 123 115 75 
54.861698 13.226615 -66.248085 124 115 78 
55.055840 13.245651 -66.343437 127 117 81 
55.174496 13.246487 -66.347618 126 117 81 
40.931316 12.509839 -63.207607 137 127 91 
41.156429 12.545008 -63.385300 135 126 90 
41.354641 12.571811 -63.520725 134 125 91 
41.534470 12.592897 -63.627270 133 124 92 
41.710484 12.612720 -63.727425 133 124 93 
41.904354 12.637821 -63.854256 132 124 93 
42.098133 12.662764 -63.980278 131 125 94 
42.375469 12.712641 -64.232292 132 126 98 
42.616287 12.751330 -64.427773 132 128 103 
42.769882 12.763787 -64.490715 133 130 106 
42.921162 12.775490 -64.549843 135 130 108 
43.063061 12.784347 -64.594589 136 129 107 
43.196068 12.790524 -64.625801 136 127 104 
43.841965 12.914687 -65.253159 132 126 95 
43.919952 12.904316 -65.200760 131 125 93 
44.045113 12.907823 -65.218468 132 125 93 
44.163094 12.909212 -65.225494 132 125 94 
44.274849 12.908780 -65.223312 132 125 96 
45.030090 12.996025 -65.664131 135 128 105 
45.161938 13.001163 -65.690086 135 127 105 
45.235126 12.989432 -65.630814 134 126 103 
45.369144 12.995182 -65.659866 133 126 100 
45.526661 13.007618 -65.722702 135 127 98 
45.709080 13.027088 -65.821075 135 128 95 
45.942070 13.060839 -65.991608 135 128 91 
46.145412 13.086013 -66.118797 135 126 88 
46.269516 13.088648 -66.132118 137 124 88 
46.417416 13.097984 -66.179291 138 124 88 
46.533096 13.098205 -66.180405 139 124 88 
46.690945 13.110265 -66.241341 138 123 86 
46.874123 13.129361 -66.337830 138 123 87 
47.082256 13.155336 -66.469070 138 123 89 
47.229683 13.164264 -66.514175 136 123 89 
47.352596 13.166331 -66.524620 134 122 88 
47.457573 13.163414 -66.509880 134 122 89 
47.571896 13.163097 -66.508278 136 124 92 
47.685711 13.162642 -66.505981 138 126 94 
47.800011 13.162321 -66.504364 137 125 91 
47.920391 13.163674 -66.511192 135 124 86 
48.057186 13.169517 -66.540718 134 123 82 
48.173725 13.169796 -66.542122 133 123 83 
48.315823 13.177043 -66.578743 134 123 85 
48.449867 13.182065 -66.604118 133 123 87 
48.626831 13.198711 -66.688225 134 125 89 
48.708515 13.189480 -66.641579 135 125 89 
48.809097 13.185396 -66.620949 133 124 87 
48.937794 13.188909 -66.638695 133 124 87 
49.082512 13.196713 -66.678131 133 123 86 
49.258854 13.212963 -66.760231 132 122 85 
49.351192 13.206656 -66.728371 132 123 85 
49.420700 13.194285 -66.665863 133 124 87 
49.597706 13.210604 -66.748314 134 125 91 
49.706615 13.208751 -66.738953 134 125 91 
49.877605 13.223366 -66.812798 133 125 90 
50.010628 13.227869 -66.835548 132 124 88 
50.072273 13.213516 -66.763031 131 123 85 
50.149578 13.203353 -66.711678 130 121 80 
50.261982 13.202456 -66.707146 130 121 78 
50.382511 13.203692 -66.713394 130 121 77 
50.496838 13.203301 -66.711418 131 121 79 
50.666386 13.217319 -66.782242 131 121 80 
50.749332 13.208731 -66.738846 131 121 80 
50.780094 13.186630 -66.627190 131 122 82 
50.827362 13.168907 -66.537636 131 122 83 
50.947060 13.169989 -66.543098 131 121 84 
51.080696 13.174660 -66.566704 130 120 83 
51.237373 13.185239 -66.620155 129 119 81 
51.364143 13.188091 -66.634567 129 118 80 
51.548424 13.205664 -66.723351 130 119 80 
51.629528 13.196785 -66.678490 131 119 81 
51.837002 13.220175 -66.796669 130 118 79 
52.020359 13.237324 -66.883316 128 116 77 
52.128712 13.235353 -66.873360 128 116 77 
52.156982 13.213101 -66.760933 131 117 79 
52.176910 13.188842 -66.638359 131 117 79 
52.203274 13.166313 -66.524529 131 117 80 
52.329357 13.168977 -66.537987 130 117 81 
52.456116 13.171800 -66.552254 129 117 81 
52.454063 13.142337 -66.403389 130 117 80 
52.488567 13.122142 -66.301353 131 118 80 
52.670990 13.138934 -66.386192 130 118 79 
52.923714 13.173151 -66.559082 128 117 77 
53.023098 13.169135 -66.538788 127 117 77 
52.893795 13.108462 -66.232231 128 120 80 
53.027103 13.112993 -66.255119 128 120 82 
53.143623 13.113361 -66.256981 125 118 82 
53.225506 13.105200 -66.215744 123 118 82 
53.471466 13.137385 -66.378372 123 118 83 
53.574764 13.134459 -66.363579 122 119 83 
53.548416 13.099827 -66.188599 123 118 84 
53.574944 13.078252 -66.079590 125 119 86 
53.801556 13.105507 -66.217300 125 118 86 
53.979755 13.120879 -66.294968 124 116 85 
54.084530 13.118375 -66.282318 122 116 83 
54.182423 13.114217 -66.261307 122 117 82 
54.374138 13.132737 -66.354881 123 116 80 
54.549675 13.147279 -66.428360 124 116 79 
54.767422 13.171911 -66.552818 123 115 78 
54.816406 13.155937 -66.472107 122 114 77 
54.808231 13.126341 -66.322563 122 114 77 
54.914898 13.124315 -66.312325 125 115 80 
55.096619 13.140198 -66.392578 126 116 82 
55.220604 13.142274 -66.403069 126 117 83 
40.963863 12.409965 -63.257874 137 127 94 
41.183388 12.443110 -63.426823 137 127 92 
41.370998 12.466461 -63.545856 136 126 91 
41.554356 12.488410 -63.657738 135 125 90 
41.738560 12.510496 -63.770317 135 124 90 
41.926537 12.533594 -63.888054 134 124 91 
42.124260 12.559476 -64.019981 134 125 93 
42.392513 12.606194 -64.258125 134 126 97 
42.637684 12.645822 -64.460121 134 128 101 
42.789413 12.657601 -64.520164 134 129 104 
42.955818 12.673649 -64.601967 138 131 106 
43.094101 12.681337 -64.641151 138 130 105 
43.231335 12.688677 -64.678566 136 127 101 
43.869827 12.809536 -65.294624 134 124 93 
43.953888 12.801004 -65.251137 133 123 91 
44.078560 12.804312 -65.267998 133 123 91 
44.200394 12.806781 -65.280579 133 123 92 
44.315563 12.807311 -65.283279 135 124 95 
45.084564 12.897610 -65.743568 135 127 100 
45.216122 12.902580 -65.768906 137 127 100 
45.273392 12.886381 -65.686333 137 128 100 
45.401440 12.890358 -65.706604 136 127 98 
45.575565 12.907366 -65.793297 135 126 94 
45.768909 12.929717 -65.907227 134 126 91 
45.964848 12.952687 -66.024323 134 126 90 
46.154358 12.973737 -66.131615 135 126 88 
46.283848 12.977854 -66.152596 136 124 88 
46.433025 12.987455 -66.201546 138 124 87 
46.568172 12.993095 -66.230293 139 124 85 
46.724411 13.004578 -66.288818 138 123 83 
46.930191 13.029758 -66.417175 137 121 83 
47.142899 13.056734 -66.554680 136 121 84 
47.271767 13.060415 -66.573441 134 121 85 
47.371071 13.055929 -66.550575 133 121 86 
47.469688 13.051277 -66.526863 134 123 89 
47.594170 13.053741 -66.539421 136 125 94 
47.705948 13.052716 -66.534203 138 126 96 
47.824238 13.053475 -66.538071 137 126 93 
47.941189 13.053865 -66.540054 136 125 85 
48.081947 13.060721 -66.575005 135 124 80 
48.223118 13.067656 -66.610352 134 123 79 
48.384712 13.080078 -66.673668 133 122 80 
48.483238 13.075431 -66.649986 133 123 84 
48.647079 13.088381 -66.715996 135 125 88 
48.731026 13.079823 -66.672379 136 126 89 
48.860863 13.083596 -66.691605 136 125 88 
48.979778 13.084433 -66.695869 135 125 88 
49.123600 13.091903 -66.733948 134 124 88 
49.293278 13.106213 -66.806892 133 123 87 
49.398952 13.103477 -66.792946 133 123 88 
49.474369 13.092749 -66.738258 134 124 90 
49.623436 13.101515 -66.782944 133 126 91 
49.740692 13.101861 -66.784706 134 127 92 
49.898708 13.112917 -66.841064 133 125 91 
50.037754 13.118948 -66.871803 131 123 89 
50.118221 13.109628 -66.824295 130 121 87 
50.214363 13.104442 -66.797859 129 121 84 
50.349037 13.109311 -66.822685 130 121 83 
50.490517 13.115927 -66.856407 131 122 82 
50.572529 13.107100 -66.811409 131 121 83 
50.713478 13.113554 -66.844307 131 121 83 
50.794262 13.104456 -66.797935 131 121 83 
50.814327 13.079770 -66.672104 131 121 84 
50.852203 13.059771 -66.570160 131 121 84 
50.973427 13.061218 -66.577538 132 121 83 
51.121395 13.069496 -66.619736 131 119 81 
51.278111 13.079969 -66.673119 130 118 79 
51.402199 13.082090 -66.683929 130 117 78 
51.594749 13.101588 -66.783318 131 118 77 
51.690094 13.096370 -66.756714 131 118 77 
51.864544 13.111171 -66.832161 130 117 77 
52.035583 13.125047 -66.902893 128 116 78 
52.151237 13.124922 -66.902252 128 116 79 
52.194401 13.106594 -66.808830 129 117 81 
52.227463 13.085816 -66.702927 130 118 82 
52.299152 13.074788 -66.646706 130 119 84 
52.421722 13.076501 -66.655434 129 119 85 
52.512211 13.070220 -66.623421 129 118 84 
52.522072 13.043942 -66.489479 129 118 83 
52.514626 13.013493 -66.334267 131 118 81 
52.685505 13.027269 -66.404488 130 118 79 
52.947563 13.063482 -66.589081 129 116 76 
53.058918 13.062435 -66.583740 129 116 76 
52.952785 13.007967 -66.306099 130 118 79 
53.071018 13.008731 -66.309990 130 119 82 
53.221497 13.017379 -66.354073 128 117 84 
53.298397 13.008033 -66.306435 125 116 84 
53.509808 13.031484 -66.425964 124 117 85 
53.616638 13.029420 -66.415451 124 118 85 
53.606468 12.998994 -66.260353 125 119 87 
53.623138 12.975192 -66.139030 126 119 89 
53.819252 12.994820 -66.239082 125 117 87 
53.993660 13.009133 -66.312042 124 116 86 
54.150242 13.019101 -66.362846 124 116 87 
54.291756 13.025411 -66.395012 124 117 87 
54.452244 13.036236 -66.450195 124 116 84 
54.642979 13.054242 -66.541977 123 114 83 
54.821747 13.069319 -66.618828 122 114 81 
54.877903 13.055164 -66.546677 121 113 80 
54.856926 13.022758 -66.381493 122 113 79 
54.957272 13.019228 -66.363495 124 114 79 
55.136528 13.034368 -66.440674 125 115 81 
55.288063 13.042905 -66.484184 125 115 81 
40.987347 12.307193 -63.294132 135 127 95 
41.199314 12.337763 -63.451351 136 126 93 
41.384079 12.360044 -63.565945 137 127 92 
41.569946 12.382537 -63.681618 137 126 89 
41.774284 12.410398 -63.824902 136 123 86 
41.958260 12.432077 -63.936398 136 123 88 
42.148655 12.455539 -64.057060 136 124 91 
42.421875 12.503290 -64.302635 136 126 94 
42.666531 12.542392 -64.503731 136 128 98 
42.834106 12.558691 -64.587555 136 130 100 
42.995865 12.573204 -64.662193 139 132 102 
43.159859 12.588292 -64.739792 138 130 100 
43.339825 12.607949 -64.840881 136 127 95 
43.908558 12.707387 -65.352272 136 124 89 
43.978188 12.694735 -65.287209 135 123 89 
44.101566 12.697623 -65.302063 135 123 90 
44.237717 12.704165 -65.335701 136 123 91 
44.372471 12.710274 -65.367119 138 123 92 
44.904076 12.797091 -65.813606 138 124 91 
45.085033 12.816050 -65.911110 137 125 91 
45.260128 12.833252 -65.999580 137 127 92 
45.423031 12.846918 -66.069862 137 127 91 
45.562122 12.853798 -66.105247 136 127 90 
45.646465 12.845236 -66.061211 135 126 89 
45.672832 12.820444 -65.933716 134 126 88 
45.816750 12.828690 -65.976120 133 125 87 
45.992710 12.845844 -66.064346 133 126 87 
46.169033 12.863014 -66.152641 135 127 89 
46.313671 12.871293 -66.195221 137 126 90 
46.450363 12.877328 -66.226257 137 124 88 
46.592487 12.884836 -66.264870 138 124 87 
46.760162 12.899355 -66.339539 139 124 86 
46.950985 12.920174 -66.446602 137 122 85 
47.153088 12.943984 -66.569061 135 121 85 
47.277382 12.946373 -66.581345 134 121 85 
47.382610 12.943542 -66.566788 133 122 87 
47.515518 12.948267 -66.591087 134 125 93 
47.626404 12.946984 -66.584488 135 126 97 
47.732296 12.944351 -66.570946 136 126 98 
47.846947 12.944101 -66.569664 136 126 95 
47.964634 12.944673 -66.572601 135 125 87 
48.094582 12.948542 -66.592499 135 124 81 
48.236115 12.955503 -66.628304 134 123 80 
48.398647 12.968059 -66.692871 134 122 81 
48.514057 12.967958 -66.692352 135 124 86 
48.663181 12.976848 -66.738075 136 125 88 
48.743023 12.967265 -66.688789 136 126 89 
48.892597 12.976234 -66.734917 136 126 90 
49.009766 12.976582 -66.736702 134 124 89 
49.149490 12.982884 -66.769119 133 123 88 
49.317886 12.996714 -66.840240 132 122 88 
49.418106 12.992554 -66.818848 133 123 89 
49.495895 12.982530 -66.767296 133 124 90 
49.657581 12.994508 -66.828896 131 126 90 
49.776054 12.995148 -66.832184 132 126 91 
49.928913 13.004740 -66.881516 131 125 91 
50.069660 13.011141 -66.914444 130 123 91 
50.165161 13.005782 -66.886879 130 122 90 
50.353767 13.024530 -66.983299 130 122 90 
50.494297 13.030787 -67.015472 131 123 89 
50.586632 13.024604 -66.983681 131 122 87 
50.621357 13.003652 -66.875923 131 121 86 
50.758812 13.009124 -66.904060 131 121 86 
50.837219 12.999472 -66.854424 131 121 86 
50.846668 12.972271 -66.714539 132 121 86 
50.895977 12.955339 -66.627457 133 120 86 
51.007854 12.954376 -66.622505 132 119 84 
51.159931 12.963602 -66.669952 132 117 82 
51.316948 12.974036 -66.723618 131 117 81 
51.426136 12.972359 -66.714989 131 117 79 
51.615467 12.990859 -66.810135 131 117 78 
51.709602 12.985371 -66.781906 131 117 78 
51.891006 13.001774 -66.866264 131 117 79 
52.087048 13.021762 -66.969063 130 118 81 
52.215420 13.024782 -66.984596 131 118 82 
52.225487 12.998343 -66.848625 130 118 83 
52.258968 12.977838 -66.743164 131 118 84 
52.321171 12.964538 -66.674767 130 119 85 
52.446785 12.966976 -66.687302 129 120 84 
52.539093 12.961185 -66.657524 128 119 84 
52.552528 12.936007 -66.528038 128 119 83 
52.588417 12.916453 -66.427475 129 119 84 
52.795132 12.938850 -66.542664 131 119 84 
53.007179 12.962455 -66.664055 130 116 80 
53.102009 12.957354 -66.637817 130 114 78 
53.012764 12.907455 -66.381203 131 115 79 
53.116695 12.904707 -66.367065 131 117 81 
53.266079 12.912990 -66.409660 130 116 83 
53.360390 12.907912 -66.383553 128 116 83 
53.555744 12.927249 -66.482994 126 116 83 
53.646091 12.921209 -66.451935 124 116 84 
53.630852 12.889818 -66.290497 126 118 86 
53.645344 12.865692 -66.166420 127 119 88 
53.835484 12.883705 -66.259056 126 118 87 
54.016571 12.899480 -66.340179 126 117 87 
54.177841 12.910464 -66.396667 125 118 88 
54.315994 12.915905 -66.424652 125 118 88 
54.500519 12.932326 -66.509109 124 116 87 
54.681877 12.947929 -66.589348 124 115 85 
54.856495 12.961872 -66.661057 123 114 83 
54.917057 12.948864 -66.594154 122 113 82 
54.885757 12.914295 -66.416374 122 113 80 
54.977859 12.908848 -66.388359 124 114 79 
55.165592 12.925829 -66.475693 125 115 80 
55.323128 12.935679 -66.526352 124 114 81 
41.010639 12.204239 -63.330105 136 127 97 
41.227272 12.235902 -63.494408 137 126 96 
41.411457 12.257792 -63.608002 139 127 95 
41.591415 12.278316 -63.714508 138 127 92 
41.789482 12.304065 -63.848118 136 124 88 
41.970196 12.324581 -63.954582 136 122 87 
42.174911 12.352018 -64.096962 137 123 88 
42.446892 12.398961 -64.340553 137 125 91 
42.700092 12.440185 -64.554474 136 127 94 
42.874378 12.458262 -64.648277 136 128 96 
43.063148 12.480443 -64.763382 137 130 97 
43.202877 12.488332 -64.804314 137 130 96 
43.370983 12.504361 -64.887497 136 128 92 
43.921299 12.597583 -65.371239 136 124 87 
43.996632 12.586665 -65.314583 136 124 87 
44.129662 12.592268 -65.343666 137 125 89 
44.267368 12.599174 -65.379494 138 125 91 
44.404121 12.605774 -65.413750 138 124 89 
44.950649 12.695985 -65.881866 137 123 85 
45.120358 12.711573 -65.962753 137 125 86 
45.291649 12.727527 -66.045547 138 127 88 
45.449162 12.739538 -66.107872 137 127 87 
45.599739 12.749549 -66.159821 135 126 85 
45.691956 12.743235 -66.127052 134 126 84 
45.721722 12.719577 -66.004288 132 125 84 
45.838181 12.720095 -66.006981 132 124 85 
46.011948 12.736474 -66.091972 132 124 86 
46.184490 12.752434 -66.174789 134 126 88 
46.328423 12.760434 -66.216309 136 126 91 
46.472912 12.768547 -66.258408 136 124 90 
46.615318 12.776050 -66.297340 137 124 89 
46.789871 12.792305 -66.381691 139 124 89 
46.986950 12.814623 -66.497498 138 124 88 
47.173634 12.834003 -66.598068 136 122 88 
47.304810 12.838224 -66.619980 134 122 89 
47.437790 12.842914 -66.644310 134 124 92 
47.534527 12.837791 -66.617729 133 126 95 
47.647625 12.837103 -66.614159 133 127 98 
47.753269 12.834414 -66.600204 134 127 99 
47.879478 12.837252 -66.614929 135 127 98 
48.029324 12.846397 -66.662392 135 125 92 
48.155216 12.849108 -66.676453 134 123 86 
48.296570 12.855922 -66.711807 134 122 85 
48.530441 12.887270 -66.874481 136 122 88 
48.641918 12.886045 -66.868126 138 125 92 
48.715382 12.874780 -66.809669 137 125 92 
48.782555 12.861908 -66.742874 137 126 92 
48.922436 12.868223 -66.775642 136 125 92 
49.030956 12.866279 -66.765556 134 124 90 
49.163452 12.870621 -66.788086 133 123 88 
49.338394 12.886027 -66.868034 133 123 88 
49.439491 12.882121 -66.847763 134 124 89 
49.529293 12.875297 -66.812347 133 125 88 
49.707626 12.891464 -66.896248 130 125 87 
49.858345 12.900412 -66.942673 129 124 88 
49.971947 12.899735 -66.939163 129 123 90 
50.097439 12.902124 -66.951569 130 123 93 
50.221684 12.904182 -66.962250 131 124 93 
50.404709 12.921299 -67.051064 131 124 93 
50.532665 12.924253 -67.066399 132 123 92 
50.614628 12.915457 -67.020744 131 122 89 
50.642422 12.892911 -66.903755 131 122 86 
50.778381 12.897941 -66.929855 131 121 85 
50.855621 12.888068 -66.878624 131 121 85 
50.865181 12.861128 -66.738831 132 120 86 
50.920483 12.845849 -66.659538 132 119 87 
51.048664 12.848983 -66.675804 132 117 86 
51.208294 12.860002 -66.732979 132 116 85 
51.399868 12.878974 -66.831429 133 117 85 
51.541298 12.885324 -66.864388 133 118 84 
51.673706 12.889397 -66.885521 131 118 82 
51.749050 12.879248 -66.832855 130 118 81 
51.934792 12.896559 -66.922684 131 119 82 
52.125427 12.915005 -67.018402 132 120 83 
52.234577 12.913225 -67.009171 132 119 83 
52.255398 12.889666 -66.886909 131 117 81 
52.313957 12.875498 -66.813393 130 116 81 
52.405640 12.869527 -66.782410 130 117 81 
52.528412 12.871201 -66.791092 129 118 80 
52.591003 12.858153 -66.723389 128 118 81 
52.581593 12.827598 -66.564827 129 119 84 
52.658146 12.818101 -66.515556 130 121 87 
52.853256 12.837443 -66.615921 130 121 87 
53.067341 12.861299 -66.739716 129 117 84 
53.149261 12.853089 -66.697113 129 115 81 
53.048626 12.800864 -66.426109 131 115 81 
53.145470 12.796414 -66.403015 132 116 81 
53.319294 12.810480 -66.476006 132 117 81 
53.416058 12.806009 -66.452805 130 117 81 
53.588188 12.819588 -66.523270 127 116 81 
53.686592 12.815509 -66.502098 125 116 81 
53.692806 12.789488 -66.367073 125 117 82 
53.705620 12.765147 -66.240761 127 118 84 
53.855854 12.773503 -66.284126 127 118 85 
54.035748 12.788844 -66.363731 126 118 85 
54.228291 12.807107 -66.458504 124 118 84 
54.359337 12.810799 -66.477661 124 117 85 
54.531811 12.824218 -66.547295 124 116 85 
54.703133 12.837310 -66.615227 124 115 84 
54.877361 12.851027 -66.686417 123 114 84 
54.948391 12.840571 -66.632156 123 114 83 
54.935619 12.810616 -66.476715 123 114 82 
55.022202 12.803909 -66.441902 124 114 81 
55.193886 12.816991 -66.509789 125 115 81 
55.352200 12.826919 -66.561310 124 114 82 
41.039261 12.102731 -63.374302 138 127 99 
41.252720 12.133153 -63.533604 137 126 99 
41.443764 12.156837 -63.657623 138 127 99 
41.632404 12.179693 -63.777302 138 128 97 
41.819313 12.201921 -63.893696 135 125 92 
41.980797 12.216634 -63.970737 135 122 88 
42.195744 12.246785 -64.128624 134 123 88 
42.462902 12.291893 -64.364822 135 124 90 
42.714397 12.332241 -64.576096 136 125 93 
42.894684 12.351871 -64.678894 135 126 94 
43.079552 12.372718 -64.788048 136 128 96 
43.216328 12.379678 -64.824493 137 129 95 
43.392204 12.397773 -64.919243 137 129 94 
43.938488 12.488976 -65.396820 135 126 89 
44.024597 12.481200 -65.356102 135 127 89 
44.157017 12.486560 -65.384171 137 128 90 
44.290741 12.492260 -65.414017 137 127 90 
44.430969 12.499762 -65.453293 136 125 87 
44.958416 12.583780 -65.893250 135 123 85 
45.130974 12.600018 -65.978271 135 125 87 
45.315407 12.619480 -66.080185 135 127 90 
45.470863 12.630795 -66.139435 135 128 90 
45.621918 12.640834 -66.192001 135 127 89 
45.712242 12.634037 -66.156410 133 125 87 
45.740520 12.610168 -66.031425 131 123 85 
45.848984 12.608471 -66.022537 132 123 85 
46.021629 12.624388 -66.105881 132 123 86 
46.203194 12.642665 -66.201591 133 124 87 
46.378242 12.659073 -66.287514 133 124 88 
46.499184 12.660668 -66.295860 134 124 88 
46.636353 12.666663 -66.327255 136 124 87 
46.811954 12.683042 -66.413017 137 125 88 
47.003696 12.703702 -66.521202 136 124 88 
47.182446 12.720757 -66.610512 135 123 88 
47.313278 12.724843 -66.631905 134 123 90 
47.447796 12.729896 -66.658363 133 124 93 
47.554825 12.727569 -66.646179 131 126 97 
47.671970 12.727953 -66.648193 131 128 100 
47.792587 12.729261 -66.655037 133 128 103 
47.918949 12.732088 -66.669846 135 127 102 
48.091244 12.747076 -66.748329 135 126 97 
48.270191 12.763752 -66.835648 133 123 93 
48.377529 12.761458 -66.823639 133 122 91 
48.548038 12.775800 -66.898735 135 123 90 
48.649776 12.772017 -66.878929 138 125 92 
48.731770 12.763083 -66.832138 138 125 93 
48.800728 12.750784 -66.767738 137 125 93 
48.939445 12.756728 -66.798866 135 125 92 
49.054512 12.756493 -66.797630 134 125 91 
49.189732 12.761487 -66.823784 134 124 89 
49.360291 12.775605 -66.897713 134 124 87 
49.479919 12.776505 -66.902428 134 123 86 
49.583744 12.773330 -66.885803 133 123 85 
49.763973 12.789806 -66.972076 131 123 84 
49.895554 12.793732 -66.992630 129 122 86 
49.996632 12.789836 -66.972237 130 122 89 
50.118343 12.791224 -66.979507 131 122 93 
50.239689 12.792513 -66.986252 131 123 93 
50.423981 12.809788 -67.076706 132 124 92 
50.558105 12.814266 -67.100159 132 124 90 
50.635918 12.804484 -67.048935 131 123 88 
50.666145 12.782743 -66.935097 130 122 85 
50.797050 12.786444 -66.954468 131 121 86 
50.894337 12.781683 -66.929535 131 121 88 
50.953995 12.767516 -66.855354 132 121 91 
50.960461 12.740115 -66.711876 131 119 90 
51.081242 12.741352 -66.718353 131 118 88 
51.248013 12.754031 -66.784744 132 118 87 
51.432137 12.770960 -66.873390 133 119 86 
51.568592 12.776003 -66.899796 133 120 84 
51.702003 12.780271 -66.922142 132 120 83 
51.788315 12.772902 -66.883560 132 120 83 
51.954491 12.785222 -66.948067 132 120 83 
52.143948 12.803201 -67.042213 133 121 84 
52.248367 12.800268 -67.026863 132 120 83 
52.271435 12.777462 -66.907433 130 117 81 
52.345238 12.767132 -66.853340 128 115 80 
52.450577 12.764521 -66.839668 128 115 80 
52.551472 12.760843 -66.820412 128 117 80 
52.625298 12.750623 -66.766899 128 120 82 
52.619949 12.721307 -66.613388 128 121 84 
52.684155 12.708898 -66.548409 129 122 87 
52.877922 12.727727 -66.647011 129 122 86 
53.102654 12.753912 -66.784126 128 119 82 
53.203468 12.750286 -66.765137 127 116 78 
53.166462 12.713719 -66.573654 128 116 77 
53.284397 12.714281 -66.576599 130 117 76 
53.451660 12.726585 -66.641029 130 117 76 
53.499653 12.710501 -66.556808 130 118 77 
53.633106 12.714745 -66.579025 128 116 78 
53.727386 12.709704 -66.552635 126 115 78 
53.727791 12.682526 -66.410316 126 115 80 
53.726780 12.655130 -66.266861 128 117 83 
53.870621 12.661899 -66.302307 128 117 84 
54.054462 12.678019 -66.386719 128 117 86 
54.306309 12.709987 -66.554115 127 116 88 
54.400345 12.704964 -66.527809 125 116 88 
54.555668 12.714245 -66.576408 124 115 86 
54.737011 12.729538 -66.656487 123 115 86 
54.919830 12.745109 -66.738022 123 116 86 
54.982483 12.732785 -66.673492 123 114 85 
54.995773 12.709107 -66.549507 123 114 85 
55.090504 12.704309 -66.524384 124 115 84 
55.230705 12.709995 -66.554161 124 114 82 
55.398727 12.722046 -66.617256 123 114 80 
41.056561 11.997762 -63.401016 137 126 100 
41.265358 12.026534 -63.553062 136 126 100 
41.462944 12.051896 -63.687084 135 127 99 
41.644428 12.072453 -63.795719 136 128 98 
41.833061 12.094971 -63.914707 135 127 94 
42.000622 12.111291 -64.000946 135 125 90 
42.209225 12.139328 -64.149109 135 125 89 
42.471645 12.182656 -64.378075 135 125 91 
42.723000 12.222590 -64.589096 135 125 94 
42.902431 12.241794 -64.690582 135 126 95 
43.088734 12.262851 -64.801857 135 127 96 
43.232578 12.271748 -64.848869 137 128 97 
43.409397 12.289933 -64.944969 137 128 96 
43.950603 12.378852 -65.414848 134 128 90 
44.034306 12.370462 -65.370514 134 128 89 
44.173912 12.377780 -65.409187 135 128 91 
44.310158 12.384121 -65.442696 135 127 91 
44.461121 12.394533 -65.497711 134 125 90 
44.976887 12.474505 -65.920319 133 124 89 
45.153748 12.491773 -66.011566 133 125 91 
45.336914 12.510693 -66.111549 133 127 93 
45.503090 12.524841 -66.186317 135 128 95 
45.649883 12.533595 -66.232574 135 127 94 
45.735741 12.525618 -66.190422 133 125 91 
45.774055 12.504692 -66.079842 132 124 89 
45.871223 12.499908 -66.054558 131 123 88 
46.034115 12.513014 -66.123817 132 123 88 
46.212475 12.530249 -66.214890 132 124 87 
46.395164 12.548569 -66.311699 133 125 86 
46.526600 12.552969 -66.334953 134 125 85 
46.665943 12.559476 -66.369339 135 125 84 
46.838940 12.574986 -66.451309 136 125 85 
47.020729 12.592775 -66.545303 135 124 86 
47.189213 12.606922 -66.620064 135 124 88 
47.323864 12.611983 -66.646812 134 125 91 
47.456913 12.616594 -66.671173 133 125 92 
47.565247 12.614628 -66.660782 131 127 96 
47.678627 12.614005 -66.657494 131 128 100 
47.802265 12.616094 -66.668533 133 128 102 
47.931702 12.619699 -66.687584 134 127 101 
48.109249 12.635923 -66.773323 134 126 99 
48.291988 12.653429 -66.865829 133 124 96 
48.400269 12.651389 -66.855042 133 123 94 
48.569279 12.665195 -66.928001 134 123 93 
48.673618 12.662111 -66.911705 136 123 93 
48.760166 12.654424 -66.871086 136 123 94 
48.836422 12.644110 -66.816582 134 124 94 
48.967625 12.648036 -66.837326 133 124 93 
49.087921 12.649133 -66.843124 132 124 92 
49.219891 12.653226 -66.864754 132 124 90 
49.385311 12.665880 -66.931625 133 124 89 
49.501297 12.665825 -66.931335 133 122 87 
49.605095 12.662660 -66.914604 132 122 85 
49.785084 12.678911 -67.000488 130 122 84 
49.915623 12.682525 -67.019577 130 122 85 
50.017231 12.678786 -66.999825 131 123 89 
50.153156 12.683744 -67.026024 133 124 93 
50.267647 12.683271 -67.023529 133 124 93 
50.447220 12.699184 -67.107620 132 124 90 
50.582390 12.703873 -67.132393 132 123 88 
50.661636 12.694525 -67.082993 131 123 86 
50.685219 12.671305 -66.960289 129 122 85 
50.826069 12.677441 -66.992714 131 122 88 
50.943398 12.677695 -66.994057 132 123 91 
50.980377 12.657998 -66.889969 132 122 93 
51.004078 12.635100 -66.768974 131 121 93 
51.128937 12.637311 -66.780655 131 120 91 
51.279903 12.645949 -66.826302 131 120 88 
51.473595 12.665060 -66.927292 131 121 85 
51.599537 12.667454 -66.939934 132 121 82 
51.733025 12.671685 -66.962296 132 122 81 
51.816700 12.663723 -66.920227 132 122 81 
51.977203 12.674530 -66.977333 132 122 82 
52.159538 12.690602 -67.062263 132 121 83 
52.261536 12.687099 -67.043747 131 120 83 
52.291821 12.666241 -66.933525 129 118 82 
52.364872 12.655811 -66.878418 128 116 81 
52.476460 12.654721 -66.872658 127 116 81 
52.582035 12.652190 -66.859276 128 119 81 
52.645271 12.639503 -66.792236 128 120 81 
52.659500 12.615133 -66.663452 127 120 82 
52.795193 12.619904 -66.688667 128 121 82 
52.967247 12.633326 -66.759590 129 121 81 
53.178059 12.655913 -66.878960 128 119 77 
53.264656 12.648905 -66.841919 126 116 74 
53.279465 12.624917 -66.715157 127 116 72 
53.399254 12.625854 -66.720108 129 117 71 
53.528976 12.629131 -66.737427 130 118 72 
53.618446 12.622917 -66.704590 131 118 72 
53.785084 12.634858 -66.767685 130 116 72 
53.872482 12.628174 -66.732368 128 113 72 
53.842133 12.593975 -66.551651 128 112 75 
53.789036 12.554614 -66.343651 130 114 80 
53.899170 12.553439 -66.337440 130 114 83 
54.070896 12.566584 -66.406898 130 116 87 
54.371441 12.609547 -66.633934 130 117 92 
54.521221 12.617438 -66.675636 128 118 93 
54.672104 12.625549 -66.718498 126 116 91 
54.810375 12.630720 -66.745827 124 116 90 
54.970409 12.640875 -66.799484 124 117 89 
55.049187 12.632339 -66.754387 124 116 88 
55.042511 12.604272 -66.606064 124 115 87 
55.132061 12.598312 -66.574570 124 115 86 
55.262127 12.601615 -66.592018 124 113 83 
55.426414 12.612691 -66.650551 123 114 79 
41.070805 11.891815 -63.423016 136 126 101 
41.275345 11.919084 -63.568447 135 126 100 
41.470875 11.943611 -63.699261 134 127 99 
41.652252 11.963945 -63.807709 135 128 99 
41.842216 11.986629 -63.928688 135 128 96 
42.016258 12.004645 -64.024773 135 128 92 
42.226837 12.032977 -64.175880 135 127 92 
42.486614 12.075143 -64.400764 135 126 94 
42.733299 12.113376 -64.604675 135 126 96 
42.918507 12.134028 -64.714821 136 126 98 
43.102985 12.154366 -64.823288 137 127 98 
43.245792 12.162879 -64.868690 137 126 97 
43.430538 12.183112 -64.976601 136 126 94 
43.958656 12.267531 -65.426834 135 127 91 
44.046196 12.260282 -65.388168 134 127 91 
44.190388 12.268797 -65.433586 134 126 92 
44.327740 12.275374 -65.468666 134 127 93 
44.515705 12.295898 -65.578125 134 127 95 
45.025650 12.373461 -65.991791 134 126 96 
45.165207 12.380311 -66.028328 133 125 94 
45.348530 12.399092 -66.128487 133 125 94 
45.513756 12.412842 -66.201828 134 126 94 
45.655926 12.420252 -66.241348 134 126 94 
45.745945 12.413472 -66.205185 133 126 93 
45.790619 12.394453 -66.103752 132 126 91 
45.887897 12.389732 -66.078575 131 125 90 
46.046806 12.401633 -66.142044 131 124 90 
46.225807 12.418874 -66.233994 132 125 89 
46.410416 12.437531 -66.333496 133 127 87 
46.538990 12.441116 -66.352623 134 126 86 
46.678543 12.447612 -66.387260 135 126 85 
46.851250 12.462894 -66.468773 136 126 86 
47.032032 12.480244 -66.561302 136 125 86 
47.196323 12.493145 -66.630104 135 125 87 
47.332317 12.498509 -66.658714 134 125 89 
47.466213 12.503295 -66.684242 132 126 91 
47.576962 12.501976 -66.677200 131 127 94 
47.709377 12.506341 -66.700485 131 127 96 
47.869514 12.517936 -66.762321 132 127 96 
47.983383 12.517405 -66.759491 133 126 96 
48.125584 12.524248 -66.795990 133 126 97 
48.303066 12.540219 -66.881172 134 125 97 
48.426022 12.541991 -66.890625 134 125 97 
48.596176 12.555950 -66.965065 134 123 97 
48.712948 12.556083 -66.965775 134 123 97 
48.784580 12.544606 -66.904564 134 123 96 
48.857685 12.533564 -66.845673 132 124 95 
48.989471 12.537590 -66.867149 131 124 93 
49.105492 12.537572 -66.867050 131 124 92 
49.248207 12.544354 -66.903229 132 125 92 
49.410767 12.556148 -66.966125 132 125 91 
49.543617 12.560353 -66.988556 133 124 90 
49.645485 12.556704 -66.969086 132 123 88 
49.812908 12.569612 -67.037933 131 122 86 
49.937225 12.571609 -67.048576 131 121 86 
50.033726 12.566610 -67.021919 132 123 89 
50.188389 12.576209 -67.073112 135 125 91 
50.294079 12.573520 -67.058769 134 124 91 
50.473701 12.589284 -67.142845 133 123 88 
50.605537 12.593083 -67.163109 132 122 86 
50.683662 12.583530 -67.112160 132 122 85 
50.717361 12.563016 -67.002754 131 123 86 
50.837280 12.563904 -67.007492 131 122 88 
50.968719 12.567630 -67.027359 131 121 91 
51.004841 12.547888 -66.922073 133 122 95 
51.057575 12.532313 -66.839005 134 122 96 
51.163303 12.529788 -66.825539 133 121 93 
51.316826 12.538953 -66.874420 133 121 90 
51.510204 12.557793 -66.974892 133 121 87 
51.623924 12.557171 -66.971581 132 121 84 
51.756008 12.561008 -66.992043 131 122 83 
51.837448 12.552566 -66.947014 131 122 83 
51.998493 12.563394 -67.004768 131 122 84 
52.180099 12.579131 -67.088699 131 121 85 
52.281998 12.575625 -67.070000 130 120 85 
52.315311 12.555675 -66.963600 129 119 84 
52.424953 12.554090 -66.955147 129 119 84 
52.531429 12.551757 -66.942703 128 118 84 
52.605778 12.541775 -66.889465 127 118 82 
52.679066 12.531584 -66.835114 127 118 80 
52.712147 12.511894 -66.730103 128 119 79 
52.877045 12.523510 -66.792053 129 119 78 
53.061485 12.539695 -66.878372 129 119 76 
53.236412 12.553565 -66.952347 128 117 73 
53.304722 12.542288 -66.892197 127 116 71 
53.316998 12.517903 -66.762154 126 115 70 
53.434376 12.518249 -66.763992 127 117 70 
53.550327 12.518258 -66.764046 130 118 71 
53.651539 12.514830 -66.745758 131 118 70 
53.848633 12.533733 -66.846581 131 115 68 
53.959377 12.532500 -66.840004 130 112 67 
53.957909 12.505267 -66.694756 130 111 69 
53.949215 12.476478 -66.541214 131 112 73 
53.965706 12.453624 -66.419327 130 112 77 
54.124359 12.463605 -66.472557 130 113 82 
54.431934 12.507764 -66.708076 130 116 87 
54.553539 12.509091 -66.715157 128 118 90 
54.716621 12.519905 -66.772827 126 117 88 
54.856533 12.525381 -66.802032 124 117 87 
55.002438 12.532201 -66.838409 124 118 87 
55.097477 12.527427 -66.812943 125 118 86 
55.118099 12.505788 -66.697533 126 118 86 
55.191803 12.496258 -66.646706 126 117 85 
55.304184 12.495506 -66.642700 125 115 83 
55.466488 12.506014 -66.698738 125 114 79 
41.082005 11.784919 -63.440308 136 127 101 
41.291710 11.813403 -63.593647 136 127 102 
41.488823 11.838144 -63.726833 135 128 102 
41.662624 11.856119 -63.823593 136 129 101 
41.853794 11.878928 -63.946381 136 129 99 
42.025429 11.896087 -64.038750 135 128 95 
42.234200 11.923639 -64.187065 135 127 94 
42.495884 11.965946 -64.414818 136 127 96 
42.742805 12.003884 -64.619041 136 127 98 
42.926239 12.023842 -64.726479 137 127 99 
43.109936 12.043768 -64.833740 138 127 99 
43.256237 12.053170 -64.884354 138 127 98 
43.441677 12.073400 -64.993263 137 125 95 
43.972633 12.157808 -65.447639 137 125 93 
44.073574 12.154310 -65.428810 137 125 94 
44.208569 12.160197 -65.460503 136 125 94 
44.375259 12.174750 -65.538841 137 127 97 
44.547710 12.190806 -65.625275 137 128 98 
45.034603 12.261330 -66.004913 136 128 98 
45.184994 12.271051 -66.057251 136 127 97 
45.356300 12.286390 -66.139824 134 126 94 
45.526020 12.301223 -66.219666 132 125 92 
45.665627 12.307864 -66.255417 132 126 92 
45.751541 12.300037 -66.213287 133 127 93 
45.798878 12.281905 -66.115677 132 127 92 
45.898197 12.277768 -66.093407 131 127 90 
46.061131 12.290626 -66.162621 131 127 91 
46.240650 12.307835 -66.255264 132 127 91 
46.451767 12.333347 -66.392601 133 127 92 
46.586029 12.338379 -66.419685 134 126 91 
46.728336 12.345510 -66.458076 135 127 90 
46.875248 12.353822 -66.502815 137 127 89 
47.047703 12.368807 -66.583481 135 126 88 
47.209698 12.380975 -66.648987 132 124 86 
47.353756 12.388391 -66.688911 131 123 86 
47.487511 12.393082 -66.714157 130 124 88 
47.597549 12.391577 -66.706055 130 125 91 
47.740746 12.398689 -66.744347 131 125 92 
47.915184 12.413861 -66.826019 131 125 91 
48.019783 12.410911 -66.810135 131 125 92 
48.148411 12.414169 -66.827675 132 125 94 
48.310547 12.426030 -66.891525 134 126 97 
48.448166 12.431544 -66.921211 134 127 100 
48.625927 12.447307 -67.006065 134 125 101 
48.725159 12.442941 -66.982559 133 124 98 
48.802441 12.433003 -66.929062 132 124 96 
48.879005 12.422930 -66.874840 131 125 93 
49.013783 12.427665 -66.900330 130 125 91 
49.142242 12.430779 -66.917091 130 126 90 
49.284424 12.437343 -66.952423 131 127 90 
49.430706 12.444907 -66.993141 132 127 91 
49.566662 12.449842 -67.019714 133 126 91 
49.688553 12.451230 -67.027184 134 125 90 
49.848850 12.462213 -67.086304 133 123 88 
49.947472 12.457761 -67.062340 131 121 86 
50.059292 12.456614 -67.056168 132 122 87 
50.226311 12.469177 -67.123795 134 124 88 
50.349903 12.470925 -67.133202 133 123 87 
50.509380 12.481532 -67.190308 132 122 85 
50.629555 12.482402 -67.194984 131 121 84 
50.694157 12.469597 -67.126053 132 122 85 
50.747700 12.454138 -67.042831 133 122 87 
50.863049 12.453882 -67.041458 133 121 88 
50.992489 12.457069 -67.058617 133 120 91 
51.037540 12.439673 -66.964973 136 121 95 
51.080139 12.421762 -66.868546 136 121 95 
51.186420 12.419381 -66.855736 135 120 93 
51.342037 12.428955 -66.907272 135 120 90 
51.532501 12.446902 -67.003883 134 120 88 
51.703243 12.460015 -67.074478 133 121 89 
51.904831 12.480487 -67.184677 132 122 90 
52.038975 12.484687 -67.207283 132 123 91 
52.139931 12.480923 -67.187027 132 123 91 
52.243744 12.477859 -67.170525 132 122 90 
52.331394 12.470956 -67.133369 131 122 89 
52.355469 12.448967 -67.014999 130 121 87 
52.457813 12.445645 -66.997124 130 121 86 
52.592312 12.449950 -67.020294 130 121 86 
52.685349 12.444442 -66.990639 129 120 86 
52.750629 12.432418 -66.925911 129 118 84 
52.755665 12.406278 -66.785194 130 118 81 
52.907234 12.414636 -66.830193 130 117 78 
53.089016 12.430032 -66.913071 130 117 75 
53.252800 12.441156 -66.972954 129 117 72 
53.320820 12.429908 -66.912399 128 116 71 
53.340557 12.407477 -66.791656 126 116 71 
53.467827 12.410103 -66.805786 126 117 72 
53.608086 12.415726 -66.836052 127 118 73 
53.679924 12.405512 -66.781075 130 117 71 
53.865273 12.421517 -66.867233 131 116 68 
53.983974 12.422119 -66.870468 131 113 65 
54.051899 12.411058 -66.810928 130 112 63 
54.675671 12.500634 -67.293137 126 110 65 
54.798168 12.501927 -67.300095 126 112 70 
54.783245 12.471930 -67.138611 127 114 78 
54.789257 12.446816 -67.003426 127 117 82 
54.854076 12.435141 -66.940567 126 118 82 
54.999859 12.441828 -66.976570 124 118 81 
55.142441 12.447766 -67.008537 124 118 81 
55.201778 12.434927 -66.939415 125 118 81 
55.248573 12.419322 -66.855415 127 119 81 
55.314686 12.408115 -66.795090 128 119 81 
55.421307 12.406025 -66.783836 127 117 79 
55.505188 12.398863 -66.745277 125 114 77 
41.099716 11.679812 -63.467659 137 128 99 
41.301155 11.705674 -63.608192 137 128 102 
41.498657 11.730287 -63.741936 137 128 103 
41.668873 11.747076 -63.833164 137 128 102 
41.859936 11.769638 -63.955765 137 128 101 
42.035709 11.787791 -64.054413 137 128 99 
42.248814 11.816291 -64.209282 137 128 98 
42.502323 11.855910 -64.424568 136 128 98 
42.747803 11.893089 -64.626602 135 128 98 
42.933971 11.913614 -64.738129 135 127 98 
43.117237 11.933230 -64.844727 136 127 99 
43.267338 11.943587 -64.901001 138 126 100 
43.470070 11.968383 -65.035744 139 125 99 
43.977955 12.045641 -65.455559 137 124 94 
44.079937 12.042457 -65.438255 137 124 93 
44.217117 12.048881 -65.473160 137 126 94 
44.389160 12.064746 -65.559372 138 127 95 
44.566090 12.081855 -65.652344 136 127 95 
45.046532 12.149956 -66.022400 135 126 94 
45.192158 12.158297 -66.067726 135 126 95 
45.363338 12.173453 -66.150085 135 126 95 
45.538288 12.189542 -66.237511 133 126 95 
45.675148 12.195379 -66.269234 133 126 95 
45.762100 12.187897 -66.228569 133 127 96 
45.807629 12.169445 -66.128304 132 127 94 
45.914978 12.167470 -66.117569 133 128 93 
46.075531 12.179566 -66.183304 134 129 92 
46.246704 12.194405 -66.263931 133 127 91 
46.460567 12.220397 -66.405174 132 126 92 
46.606388 12.228409 -66.448708 134 127 94 
46.773369 12.241919 -66.522125 135 128 95 
46.940693 12.255452 -66.595665 136 127 95 
47.086864 12.263410 -66.638901 135 126 93 
47.233131 12.271353 -66.682068 133 125 91 
47.363865 12.275231 -66.703148 132 124 89 
47.492695 12.278599 -66.721443 131 124 88 
47.607113 12.278234 -66.719460 131 125 89 
47.757965 12.287244 -66.768417 130 124 89 
47.921932 12.299576 -66.835434 131 125 90 
48.028915 12.297258 -66.822838 132 126 92 
48.162838 12.301833 -66.847694 133 127 95 
48.317097 12.311568 -66.900597 134 127 97 
48.455044 12.317110 -66.930710 134 127 99 
48.639683 12.334465 -67.025017 134 127 99 
48.738605 12.330053 -67.001045 133 126 97 
48.819992 12.321236 -66.953133 131 125 94 
48.902832 12.312827 -66.907433 129 124 91 
49.032280 12.316165 -66.925575 130 125 89 
49.167355 12.320897 -66.951294 131 126 88 
49.320351 12.330088 -67.001228 131 126 87 
49.473530 12.339280 -67.051186 132 128 87 
49.636368 12.350834 -67.113968 132 127 86 
49.733543 12.346032 -67.087875 132 126 87 
49.875988 12.352465 -67.122826 132 125 87 
49.970840 12.347107 -67.093719 132 123 86 
50.069019 12.342595 -67.069199 132 122 87 
50.245174 12.357282 -67.149002 133 123 87 
50.371281 12.359619 -67.161705 133 123 85 
50.533134 12.370699 -67.221909 133 121 83 
50.667377 12.374982 -67.245186 133 120 81 
50.731255 12.362100 -67.175179 133 121 82 
50.775990 12.344622 -67.080208 134 121 85 
50.880238 12.341660 -67.064110 134 121 87 
51.032570 12.350348 -67.111328 135 121 88 
51.179142 12.357606 -67.150764 136 120 88 
51.378811 12.377623 -67.259529 136 119 86 
51.449966 12.366659 -67.199959 134 117 85 
51.496132 12.349751 -67.108078 133 117 84 
51.589016 12.344099 -67.077370 133 119 84 
51.724670 12.348682 -67.102272 133 121 87 
51.917183 12.366790 -67.200668 132 123 90 
52.053646 12.371494 -67.226234 133 124 92 
52.155155 12.367889 -67.206642 133 124 92 
52.254814 12.363862 -67.184761 131 122 90 
52.346008 12.357855 -67.152115 130 121 88 
52.375626 12.337370 -67.040802 129 121 85 
52.496445 12.338410 -67.046455 128 121 83 
52.616753 12.339327 -67.051437 130 121 84 
52.732109 12.339081 -67.050095 132 121 88 
52.823410 12.333220 -67.018250 132 120 87 
52.863930 12.315553 -66.922249 132 119 86 
52.966679 12.312429 -66.905281 130 118 82 
53.125057 12.322224 -66.958496 129 116 78 
53.281502 12.331527 -67.009048 129 117 75 
53.356403 12.321959 -66.957054 128 117 74 
53.381935 12.301054 -66.843468 128 118 72 
53.499096 12.301311 -66.844856 128 118 72 
53.630650 12.304868 -66.864189 128 118 72 
53.715256 12.297662 -66.825027 128 118 70 
53.890587 12.311212 -66.898659 129 117 68 
54.013832 12.312831 -66.907455 130 116 65 
54.077934 12.300989 -66.843109 127 113 63 
54.685738 12.386086 -67.305527 124 110 66 
54.809074 12.387552 -67.313492 124 111 69 
54.800179 12.359189 -67.159370 126 114 76 
