ply
format ascii 1.0
element vertex 1125
property float x
property float y
property float z
property uchar red
property uchar green
property uchar blue
end_header
-24.327856 -8.637109 -41.458122 97 91 63 
-24.239811 -8.631387 -41.430656 96 92 61 
-24.136217 -8.620078 -41.376373 95 92 60 
-24.012478 -8.601484 -41.287125 95 92 59 
-23.911127 -8.590824 -41.235954 95 93 59 
-23.792519 -8.573880 -41.154625 94 94 60 
-23.750866 -8.584650 -41.206322 93 94 60 
-23.688541 -8.587991 -41.222355 93 93 60 
-23.545527 -8.562010 -41.097649 93 92 60 
-23.473431 -8.561738 -41.096340 93 91 60 
-23.386190 -8.555923 -41.068432 94 91 61 
-23.312555 -8.555066 -41.064320 95 91 62 
-23.219189 -8.546941 -41.025314 95 90 62 
-23.182207 -8.559584 -41.086002 95 89 61 
-23.106892 -8.558108 -41.078918 95 88 58 
-23.019077 -8.551979 -41.049500 96 88 54 
-22.916876 -8.540451 -40.994164 96 88 52 
-22.656609 -8.469760 -40.654850 97 90 52 
-21.938934 -8.227100 -39.490082 106 100 62 
-26.100212 -8.652399 -41.188278 84 77 49 
-26.194191 -8.707410 -41.450150 88 82 52 
-26.235136 -8.745046 -41.629307 90 83 52 
-26.042830 -8.704924 -41.438316 90 82 51 
-25.926849 -8.690163 -41.368046 90 82 51 
-25.913284 -8.709743 -41.461254 91 84 53 
-25.860207 -8.716114 -41.491585 93 86 54 
-25.643564 -8.667238 -41.258919 92 86 52 
-25.550562 -8.659994 -41.224434 91 85 50 
-25.523764 -8.675212 -41.296875 92 86 51 
-25.452654 -8.675411 -41.297829 92 86 51 
-25.405785 -8.683898 -41.338226 92 86 52 
-25.384089 -8.701061 -41.419930 92 86 54 
-25.319092 -8.703438 -41.431240 93 86 57 
-25.225906 -8.696110 -41.396358 94 87 61 
-25.172859 -8.702617 -41.427334 94 88 63 
-25.145004 -8.717896 -41.500065 94 87 61 
-25.116903 -8.733176 -41.572803 93 87 59 
-25.046864 -8.733921 -41.576351 92 86 57 
-24.931429 -8.718795 -41.504345 91 86 56 
-24.844685 -8.713643 -41.479824 93 87 58 
-24.739573 -8.702001 -41.424400 93 88 59 
-24.668127 -8.702168 -41.425194 93 87 60 
-24.675716 -8.730297 -41.559101 94 88 62 
-24.649305 -8.746528 -41.636364 96 90 63 
-24.562273 -8.741280 -41.611382 98 91 63 
-24.450657 -8.727225 -41.544479 99 92 64 
-24.361973 -8.721298 -41.516262 98 92 64 
-24.278097 -8.717062 -41.496094 98 92 62 
-24.169195 -8.703788 -41.432907 96 92 58 
-24.051056 -8.687098 -41.353458 95 92 56 
-23.992094 -8.691747 -41.375587 95 93 54 
-23.944311 -8.700485 -41.417187 95 94 53 
-23.903221 -8.711717 -41.470650 95 94 53 
-23.829662 -8.711145 -41.467934 94 93 53 
-23.728765 -8.700547 -41.417480 94 91 53 
-23.580193 -8.672351 -41.283257 94 90 55 
-23.497618 -8.668328 -41.264107 94 89 56 
-23.364340 -8.645520 -41.155533 95 89 59 
-23.247854 -8.628805 -41.075962 96 90 60 
-23.194147 -8.635360 -41.107166 95 89 61 
-23.130867 -8.638380 -41.121544 94 89 59 
-23.071119 -8.642741 -41.142303 94 90 57 
-22.954268 -8.625671 -41.061050 94 90 55 
-22.673960 -8.546882 -40.685986 96 92 55 
-21.914902 -8.286572 -39.446823 105 102 65 
-26.128618 -8.733401 -41.233105 84 77 48 
-26.217726 -8.787260 -41.487389 88 81 52 
-26.266344 -8.827807 -41.678829 89 82 54 
-26.079243 -8.789137 -41.496254 89 80 53 
-25.970545 -8.776750 -41.437767 90 81 54 
-25.960953 -8.797878 -41.537525 91 84 56 
-25.905560 -8.803560 -41.564350 92 85 56 
-25.711683 -8.762082 -41.368519 92 86 55 
-25.635859 -8.760714 -41.362057 92 86 54 
-25.573263 -8.763871 -41.376965 92 87 54 
-25.484346 -8.758001 -41.349251 92 86 53 
-25.438669 -8.766999 -41.391735 91 86 54 
-25.415304 -8.783760 -41.470867 91 86 56 
-25.345982 -8.784687 -41.475243 92 87 58 
-25.262806 -8.780805 -41.456913 93 89 61 
-25.210012 -8.787490 -41.488476 93 90 63 
-25.195360 -8.807547 -41.583172 92 89 62 
-25.156076 -8.819084 -41.637646 91 88 60 
-25.095295 -8.823130 -41.656742 90 87 59 
-24.994112 -8.812953 -41.608692 91 88 59 
-24.931326 -8.816295 -41.624474 92 89 62 
-24.801298 -8.795809 -41.527752 93 89 63 
-24.733728 -8.797420 -41.535355 93 89 64 
-24.698061 -8.810420 -41.596737 94 89 63 
-24.671770 -8.826851 -41.674309 96 90 62 
-24.586048 -8.822053 -41.651657 97 91 63 
-24.479776 -8.809832 -41.593956 98 92 65 
-24.404476 -8.808716 -41.588692 98 93 66 
-24.313585 -8.801950 -41.556751 98 92 64 
-24.220917 -8.794499 -41.521572 97 93 61 
-24.079838 -8.769374 -41.402943 96 92 58 
-24.019394 -8.773551 -41.422668 96 93 56 
-23.968956 -8.781419 -41.459816 96 93 55 
-23.920458 -8.790048 -41.500553 96 93 54 
-23.844954 -8.788774 -41.494541 95 92 53 
-23.744974 -8.778445 -41.445774 94 91 52 
-23.610342 -8.755203 -41.336040 94 90 53 
-23.532537 -8.752956 -41.325432 95 90 54 
-23.413521 -8.735320 -41.242168 97 91 57 
-23.265282 -8.706639 -41.106754 96 90 59 
-23.215174 -8.714619 -41.144428 96 90 61 
-23.193613 -8.733397 -41.233089 96 91 62 
-23.171940 -8.752250 -41.322098 96 92 62 
-23.102444 -8.753099 -41.326111 96 92 62 
-22.714968 -8.633103 -40.759567 97 93 61 
-21.886765 -8.344329 -39.396175 104 102 69 
-26.175184 -8.820679 -41.306591 84 76 50 
-26.305300 -8.888879 -41.625969 89 82 56 
-26.320793 -8.918615 -41.765224 91 83 57 
-26.175926 -8.894031 -41.650093 91 83 57 
-26.035564 -8.870843 -41.541508 92 83 57 
-25.986704 -8.878791 -41.578728 92 84 57 
-25.931412 -8.884579 -41.605831 92 85 57 
-25.742426 -8.844464 -41.417980 92 86 56 
-25.674274 -8.845758 -41.424042 92 88 55 
-25.597961 -8.844239 -41.416927 92 88 55 
-25.522331 -8.842949 -41.410881 91 87 55 
-25.483528 -8.854446 -41.464725 91 86 57 
-25.449697 -8.867742 -41.526985 90 87 58 
-25.382198 -8.869348 -41.534504 91 88 60 
-25.293203 -8.863430 -41.506794 92 90 62 
-25.244156 -8.871517 -41.544666 91 90 63 
-25.229719 -8.891850 -41.639881 90 89 62 
-25.192842 -8.904366 -41.698498 90 88 62 
-25.158552 -8.917873 -41.761749 90 89 62 
-25.084755 -8.917413 -41.759594 91 90 63 
-24.994761 -8.911176 -41.730385 93 91 65 
-24.867178 -8.891461 -41.638065 93 92 66 
-24.761036 -8.879322 -41.581215 93 91 65 
-24.720863 -8.890837 -41.635139 94 90 62 
-24.698925 -8.908997 -41.720181 95 90 61 
-24.629454 -8.910067 -41.725189 95 90 62 
-24.524647 -8.898323 -41.670197 96 91 64 
-24.435614 -8.892250 -41.641758 97 92 66 
-24.356810 -8.889874 -41.630630 97 93 66 
-24.293793 -8.893264 -41.646503 98 93 65 
-24.198624 -8.884868 -41.607185 98 94 63 
-24.166750 -8.899731 -41.676788 98 94 62 
-24.091940 -8.898825 -41.672546 98 94 61 
-23.968996 -8.880080 -41.584763 97 92 58 
-23.884979 -8.875688 -41.564194 97 91 56 
-23.805639 -8.873011 -41.551662 97 91 55 
-23.658861 -8.845106 -41.420986 97 90 54 
-23.562037 -8.835764 -41.377235 97 90 54 
-23.435349 -8.815131 -41.280613 98 91 56 
-23.306496 -8.793555 -41.179577 99 90 58 
-23.244419 -8.797119 -41.196262 98 90 60 
-23.223471 -8.816318 -41.286171 98 91 61 
-23.197374 -8.833675 -41.367455 98 91 62 
-23.129068 -8.835017 -41.373737 99 92 63 
-22.732716 -8.710667 -40.791412 100 94 64 
-21.850794 -8.398899 -39.331429 107 103 72 
-26.221643 -8.908175 -41.379910 83 76 52 
-26.334034 -8.970935 -41.671436 88 81 56 
-26.333385 -8.995427 -41.785210 91 83 57 
-26.198906 -8.974211 -41.686657 92 84 56 
-26.063663 -8.952616 -41.586346 92 83 55 
-26.042490 -8.970191 -41.667984 91 83 54 
-25.974318 -8.971631 -41.674671 91 85 55 
-25.778692 -8.928932 -41.476330 92 87 55 
-25.697676 -8.925803 -41.461796 92 88 56 
-25.635244 -8.929131 -41.477249 93 89 57 
-25.575964 -8.933577 -41.497902 92 88 58 
-25.544056 -8.947636 -41.563210 92 88 60 
-25.498726 -8.957060 -41.606987 91 88 61 
-25.412666 -8.952189 -41.584362 91 88 62 
-25.343901 -8.953401 -41.589989 91 88 64 
-25.278524 -8.955820 -41.601227 91 88 63 
-25.257269 -8.973929 -41.685349 91 88 62 
-25.215679 -8.984898 -41.736298 91 88 62 
-25.196047 -9.003775 -41.823982 92 89 63 
-25.122763 -9.003533 -41.822865 93 91 63 
-25.023813 -8.994066 -41.778889 94 92 64 
-24.897226 -8.974582 -41.688377 94 92 64 
-24.801067 -8.965983 -41.648441 94 91 62 
-24.753046 -8.974789 -41.689339 94 91 60 
-24.722401 -8.989964 -41.759834 95 91 61 
-24.654264 -8.991555 -41.767227 95 91 62 
-24.554815 -8.981702 -41.721455 95 91 63 
-24.471506 -8.977712 -41.702923 96 91 65 
-24.385839 -8.972832 -41.680248 97 92 67 
-24.315132 -8.973441 -41.683083 98 93 66 
-24.241932 -8.973133 -41.681648 98 93 66 
-24.228020 -8.994834 -41.782452 99 94 66 
-24.145821 -8.991237 -41.765743 99 93 65 
-24.048143 -8.981837 -41.722080 99 92 63 
-23.967672 -8.978827 -41.708096 99 92 61 
-23.853880 -8.963276 -41.635864 99 91 58 
-23.695759 -8.930924 -41.485584 98 91 56 
-23.585539 -8.916484 -41.418507 98 90 55 
-23.453844 -8.893812 -41.313190 98 90 56 
-23.334776 -8.875804 -41.229542 99 89 56 
-23.289375 -8.885792 -41.275936 99 89 57 
-23.275518 -8.907914 -41.378696 98 89 58 
-23.244673 -8.923652 -41.451801 97 89 59 
-23.156399 -8.917372 -41.422626 99 91 60 
-22.739225 -8.783999 -40.803097 101 94 62 
-21.823339 -8.456544 -39.282013 110 104 71 
-26.255030 -8.991448 -41.432594 83 77 53 
-26.363205 -9.053299 -41.717598 87 81 55 
-26.356194 -9.075824 -41.821400 91 84 56 
-26.219543 -9.053709 -41.719494 92 85 55 
-26.097589 -9.036562 -41.640476 91 84 53 
-26.072544 -9.052966 -41.716068 90 84 53 
-25.992088 -9.050170 -41.703182 91 85 55 
-25.799276 -9.008127 -41.509449 92 87 55 
-25.713308 -9.003260 -41.487019 92 88 56 
-25.659840 -9.009775 -41.517044 93 88 58 
-25.597197 -9.013098 -41.532352 92 88 59 
-25.574394 -9.030506 -41.612572 92 88 62 
-25.545277 -9.045778 -41.682945 92 88 64 
-25.458420 -9.040632 -41.659233 91 88 65 
-25.384855 -9.040191 -41.657200 92 87 66 
-25.319946 -9.042838 -41.669395 92 87 65 
-25.299492 -9.061422 -41.755035 92 86 63 
-25.257145 -9.072250 -41.804932 93 87 63 
-25.227421 -9.087687 -41.876064 93 88 62 
-25.175598 -9.095230 -41.910820 94 89 61 
-25.104916 -9.095984 -41.914295 95 91 60 
-24.997160 -9.083270 -41.855709 95 91 59 
-24.889217 -9.070415 -41.796471 94 90 57 
-24.785707 -9.059103 -41.744347 94 90 58 
-24.738413 -9.068333 -41.786880 95 91 61 
-24.688122 -9.076515 -41.824585 96 92 63 
-24.589590 -9.066958 -41.780544 96 92 64 
-24.498657 -9.060154 -41.749191 96 91 66 
-24.419256 -9.057588 -41.737366 96 91 68 
-24.360199 -9.062574 -41.760342 96 91 66 
-24.280577 -9.059916 -41.748096 96 91 66 
-24.265694 -9.081472 -41.847424 97 92 66 
-24.173065 -9.073974 -41.812870 98 92 67 
-24.097672 -9.072919 -41.808010 98 92 67 
-24.015156 -9.069168 -41.790726 99 92 65 
-23.897917 -9.052241 -41.712727 98 92 61 
-23.723698 -9.013563 -41.534500 97 90 57 
-23.645496 -9.011241 -41.523800 95 88 54 
-23.534616 -8.996413 -41.455471 95 88 53 
-23.372755 -8.961946 -41.296646 97 90 54 
-23.328821 -8.972624 -41.345852 97 90 55 
-23.322224 -8.997771 -41.461731 97 88 55 
-23.300726 -9.017308 -41.551758 97 88 55 
-23.191523 -9.002921 -41.485458 98 89 57 
-22.742411 -8.856079 -40.808811 101 94 61 
-21.804478 -8.517374 -39.248062 112 105 71 
-26.305651 -9.080854 -41.512478 84 78 55 
-26.388405 -9.134447 -41.757473 87 81 56 
-26.379702 -9.156590 -41.858700 90 84 57 
-26.246199 -9.135417 -41.761906 92 85 57 
-26.146204 -9.125822 -41.718044 92 85 56 
-26.152197 -9.153269 -41.843517 92 86 56 
-26.051907 -9.143566 -41.799156 93 86 57 
-25.840427 -9.094675 -41.575657 91 86 56 
-25.751421 -9.088737 -41.548512 90 87 56 
-25.722187 -9.103920 -41.617920 90 86 57 
-25.644428 -9.101966 -41.608990 90 86 58 
-25.594828 -9.110023 -41.645821 92 87 62 
-25.577795 -9.129751 -41.736008 92 89 66 
-25.507700 -9.130597 -41.739872 92 88 68 
-25.422737 -9.126111 -41.719364 93 87 68 
-25.351269 -9.126457 -41.720947 93 86 66 
-25.331606 -9.145508 -41.808037 93 85 64 
-25.280748 -9.153375 -41.843998 93 86 63 
-25.255644 -9.170637 -41.922913 94 87 62 
-25.204306 -9.178446 -41.958611 94 88 60 
-25.173185 -9.193686 -42.028275 94 88 58 
-25.081114 -9.186687 -41.996284 93 88 56 
-24.965832 -9.171122 -41.925129 92 87 54 
-24.821728 -9.144848 -41.805016 93 88 57 
-24.770863 -9.152870 -41.841694 94 90 60 
-24.705326 -9.155503 -41.853729 96 92 63 
-24.615879 -9.149264 -41.825211 96 92 65 
-24.531048 -9.144710 -41.804390 96 92 67 
-24.444473 -9.139477 -41.780464 96 91 67 
-24.399553 -9.149832 -41.827805 94 90 65 
-24.353163 -9.159697 -41.872898 93 90 63 
-24.307159 -9.169766 -41.918934 95 91 64 
-24.212702 -9.161563 -41.881432 95 93 68 
-24.123812 -9.155422 -41.853359 96 93 68 
-24.059298 -9.158525 -41.867538 96 93 67 
-23.951252 -9.145023 -41.805820 95 93 63 
-23.786583 -9.109756 -41.644596 94 91 59 
-23.687529 -9.099478 -41.597610 93 88 56 
-23.573202 -9.083252 -41.523438 93 88 55 
-23.412916 -9.049164 -41.367603 94 90 55 
-23.357782 -9.055633 -41.397179 95 90 56 
-23.355543 -9.082711 -41.520966 95 89 56 
-23.322693 -9.098017 -41.590931 96 89 56 
-23.203461 -9.079616 -41.506813 98 90 57 
-22.745953 -8.928318 -40.815166 103 94 61 
-21.786024 -8.578247 -39.214840 114 105 72 
-26.390743 -9.182532 -41.646759 86 81 56 
-26.434139 -9.222900 -41.829845 88 83 57 
-26.403843 -9.237708 -41.897007 90 85 58 
-26.278708 -9.219326 -41.813637 91 86 59 
-26.192554 -9.214556 -41.792000 92 86 59 
-26.211285 -9.246759 -41.938057 93 87 59 
-26.084146 -9.227539 -41.850887 92 86 58 
-25.876680 -9.179716 -41.633987 90 86 57 
-25.792818 -9.175596 -41.615303 88 86 57 
-25.756433 -9.188391 -41.673328 88 86 58 
-25.691748 -9.191133 -41.685768 88 87 60 
-25.646572 -9.200890 -41.730019 89 88 63 
-25.604597 -9.211852 -41.779739 91 88 65 
-25.532387 -9.211968 -41.780270 92 89 67 
-25.445953 -9.206941 -41.757462 92 87 68 
-25.389767 -9.212858 -41.784302 92 86 68 
-25.367731 -9.231237 -41.867661 93 85 66 
-25.319954 -9.240328 -41.908890 94 86 65 
-25.279984 -9.252329 -41.963318 94 87 63 
-25.233583 -9.262037 -42.007351 94 87 61 
-25.211634 -9.280804 -42.092464 94 87 60 
-25.116407 -9.272627 -42.055382 92 87 58 
-25.025469 -9.265990 -42.025280 92 87 58 
-24.855141 -9.229833 -41.861290 93 89 59 
-24.811045 -9.240477 -41.909565 95 90 62 
-24.740145 -9.241172 -41.912716 95 91 64 
-24.651485 -9.235217 -41.885708 95 91 66 
-24.563742 -9.229571 -41.860104 95 92 68 
-24.508780 -9.236246 -41.890377 93 90 66 
-24.466560 -9.247778 -41.942677 91 89 63 
-24.411188 -9.254391 -41.972668 90 89 61 
-24.387465 -9.273078 -42.057423 91 90 62 
-24.283493 -9.261271 -42.003880 92 91 65 
-24.184233 -9.251197 -41.958187 92 93 66 
-24.086437 -9.241624 -41.914768 94 94 66 
-23.981150 -9.229109 -41.858006 95 94 65 
-23.860798 -9.210704 -41.774529 94 92 63 
-23.769644 -9.203490 -41.741814 93 90 60 
-23.620365 -9.173658 -41.606514 94 89 58 
-23.440395 -9.131688 -41.416161 94 89 57 
-23.375355 -9.134370 -41.428322 95 90 57 
-23.380739 -9.164673 -41.565758 94 90 57 
-23.359766 -9.184799 -41.657043 94 91 57 
-23.230316 -9.162268 -41.554852 96 92 58 
-22.749056 -9.000405 -40.820736 101 96 61 
-21.755196 -8.634093 -39.159351 114 108 74 
-26.450026 -9.275625 -41.740314 88 83 56 
-26.480543 -9.311840 -41.903278 89 85 58 
-26.441147 -9.323600 -41.956200 91 86 60 
-26.311687 -9.303580 -41.866112 92 87 61 
-26.215855 -9.295372 -41.829174 92 87 60 
-26.239508 -9.329603 -41.983212 92 86 59 
-26.111795 -9.310055 -41.895248 91 86 58 
-25.926994 -9.269987 -41.714939 90 87 59 
-25.862001 -9.272651 -41.726925 89 88 60 
-25.815662 -9.282036 -41.769161 88 88 61 
-25.726612 -9.276074 -41.742336 88 88 62 
-25.667110 -9.280763 -41.763435 89 88 62 
-25.634600 -9.295265 -41.828693 91 88 63 
-25.585516 -9.303824 -41.867207 93 88 64 
-25.531233 -9.310534 -41.897408 93 88 64 
-25.476212 -9.317015 -41.926567 93 87 64 
-25.429562 -9.326601 -41.969704 92 86 63 
-25.363203 -9.328994 -41.980473 93 85 63 
-25.313107 -9.337399 -42.018299 93 86 62 
-25.258835 -9.344309 -42.049389 94 87 62 
-25.265205 -9.373757 -42.181908 94 87 63 
-25.238422 -9.391041 -42.259686 94 88 63 
-25.186350 -9.398988 -42.295444 94 88 64 
-25.034582 -9.369669 -42.163509 95 90 65 
-24.897684 -9.345758 -42.055912 95 91 66 
-24.798672 -9.335970 -42.011868 95 91 67 
-24.695482 -9.324548 -41.960464 94 91 68 
-24.596695 -9.314725 -41.916260 94 91 68 
-24.543318 -9.322091 -41.949409 92 89 67 
-24.503937 -9.334833 -42.006752 92 89 65 
-24.452419 -9.343014 -42.043564 92 89 63 
-24.410816 -9.355043 -42.097694 92 89 62 
-24.369860 -9.367393 -42.153271 91 88 61 
-24.264494 -9.354985 -42.097435 93 90 62 
-24.121174 -9.327826 -41.975216 95 92 64 
-24.022499 -9.317818 -41.930180 98 94 65 
-23.939817 -9.313972 -41.912872 98 93 64 
-23.856840 -9.309986 -41.894939 97 92 61 
-23.670563 -9.265542 -41.694939 96 91 60 
-23.469835 -9.215150 -41.468174 96 90 58 
-23.386965 -9.210866 -41.448898 95 90 57 
-23.399546 -9.244265 -41.599190 94 91 57 
-23.379641 -9.264997 -41.692486 94 92 56 
-23.257217 -9.245105 -41.602974 95 94 56 
-22.749868 -9.071598 -40.822193 99 98 61 
-21.726902 -8.690761 -39.108425 111 110 74 
-26.501066 -9.366131 -41.820862 87 82 54 
-26.511570 -9.395584 -41.952374 90 85 59 
-26.479103 -9.409929 -42.016430 92 87 62 
-26.358795 -9.393051 -41.941067 93 88 64 
-26.262970 -9.384829 -41.904350 93 87 63 
-26.268173 -9.412762 -42.029076 91 85 59 
-26.139666 -9.392804 -41.939964 90 86 58 
-25.957600 -9.353436 -41.764183 90 88 59 
-25.889181 -9.354914 -41.770779 90 89 60 
-25.859049 -9.370274 -41.839359 90 90 61 
-25.754984 -9.358853 -41.788368 89 89 61 
-25.691246 -9.362064 -41.802704 90 88 61 
-25.667620 -9.379951 -41.882576 92 88 61 
-25.659349 -9.403568 -41.988026 93 87 60 
-25.657564 -9.429704 -42.104721 92 87 59 
-25.614639 -9.440824 -42.154377 91 87 59 
-25.484703 -9.419847 -42.060715 92 86 60 
-25.421415 -9.423456 -42.076828 93 86 60 
-25.342651 -9.421331 -42.067341 94 86 61 
-25.284437 -9.426857 -42.092010 94 86 62 
-25.289886 -9.456219 -42.223114 94 87 64 
-25.269970 -9.476238 -42.312508 94 88 65 
-25.218164 -9.484383 -42.348873 94 89 66 
-25.059759 -9.452365 -42.205910 94 90 66 
-24.939123 -9.434448 -42.125912 93 90 66 
-24.842348 -9.425479 -42.085861 93 90 67 
-24.713612 -9.404295 -41.991268 94 91 68 
-24.615501 -9.394673 -41.948311 94 91 68 
-24.573990 -9.406661 -42.001835 93 90 67 
-24.555429 -9.427531 -42.095024 94 91 66 
-24.488564 -9.429924 -42.105709 94 90 64 
-24.447016 -9.442111 -42.160122 94 90 61 
-24.433575 -9.465259 -42.263481 94 88 58 
-24.332201 -9.454379 -42.214905 94 88 58 
-24.188187 -9.426816 -42.091827 96 90 60 
-24.070339 -9.409314 -42.013680 99 93 62 
-23.988768 -9.405931 -41.998573 100 94 62 
-23.891611 -9.396396 -41.956001 99 93 61 
-23.726858 -9.360137 -41.794098 99 93 61 
-23.513163 -9.304289 -41.544731 98 92 60 
-23.437834 -9.303017 -41.539051 98 91 59 
-23.455719 -9.338851 -41.699059 97 92 59 
-23.409899 -9.349464 -41.746445 95 93 58 
-23.269268 -9.322160 -41.624527 95 94 57 
-22.748919 -9.142089 -40.820492 98 99 61 
-21.710438 -8.752020 -39.078789 109 111 73 
-26.601274 -9.474426 -41.978996 85 80 51 
-26.578680 -9.492386 -42.058571 89 84 56 
-26.508036 -9.493236 -42.062336 91 86 61 
-26.377609 -9.472622 -41.971004 93 88 63 
-26.276331 -9.462391 -41.925671 93 87 63 
-26.297209 -9.496214 -42.075535 91 86 60 
-26.185637 -9.482264 -42.013721 90 88 59 
-25.988041 -9.436998 -41.813160 90 89 59 
-25.919809 -9.438586 -41.820194 89 90 59 
-25.896252 -9.456496 -41.899551 89 89 59 
-25.804897 -9.449681 -41.869354 89 88 58 
-25.758732 -9.459421 -41.912514 90 88 57 
-25.737906 -9.478549 -41.997265 91 88 57 
-25.706926 -9.494035 -42.065880 93 87 57 
-25.693426 -9.516084 -42.163570 92 87 57 
-25.651203 -9.527590 -42.214554 91 87 57 
-25.518297 -9.505383 -42.116158 93 87 59 
-25.450712 -9.507450 -42.125317 94 87 60 
-25.387836 -9.511292 -42.142345 95 88 62 
-25.330715 -9.517321 -42.169052 95 88 63 
-25.319628 -9.540730 -42.272770 95 88 64 
-25.295723 -9.559430 -42.355629 95 89 65 
-25.241928 -9.566912 -42.388779 95 90 66 
-25.081560 -9.533927 -42.242630 94 91 66 
-24.964758 -9.517357 -42.169212 93 91 66 
-24.869286 -9.508844 -42.131496 93 91 67 
-24.745684 -9.489495 -42.045765 93 91 67 
-24.661615 -9.485237 -42.026894 93 91 66 
-24.620722 -9.497607 -42.081707 94 92 66 
-24.607752 -9.520856 -42.184719 96 92 64 
-24.550333 -9.526995 -42.211914 96 91 61 
-24.493231 -9.533293 -42.239822 96 91 59 
-24.473913 -9.554380 -42.333256 96 89 56 
-24.379812 -9.546312 -42.297504 96 88 55 
-24.273100 -9.533242 -42.239594 96 89 55 
-24.151543 -9.514244 -42.155418 98 91 58 
-24.011156 -9.487691 -42.037769 100 94 61 
-23.920492 -9.480683 -42.006718 100 94 62 
-23.755043 -9.443901 -41.843746 99 93 63 
-23.553226 -9.392391 -41.615517 99 93 63 
-23.538208 -9.415283 -41.716949 99 93 64 
-23.552700 -9.450157 -41.871468 98 92 64 
-23.478329 -9.449483 -41.868477 97 93 62 
-23.297615 -9.405869 -41.675236 96 94 60 
-22.745428 -9.211544 -40.814228 99 99 63 
-21.696167 -8.814068 -39.053101 111 111 74 
-26.635588 -9.559622 -42.033146 85 81 52 
-26.605608 -9.575095 -42.101181 88 84 56 
-26.584425 -9.593828 -42.183552 90 86 57 
-26.491220 -9.586602 -42.151775 91 87 58 
-26.414419 -9.585288 -42.146000 90 87 58 
-26.352625 -9.589427 -42.164200 89 87 58 
-26.218941 -9.567357 -42.067158 90 89 58 
-26.042082 -9.529366 -41.900108 89 90 57 
-25.973623 -9.530937 -41.907024 89 89 56 
-25.972328 -9.557233 -42.022644 88 88 55 
-25.851416 -9.539536 -41.944832 89 88 55 
-25.788984 -9.543381 -41.961735 90 88 55 
-25.761795 -9.560327 -42.036243 92 88 56 
-25.728487 -9.575090 -42.101162 93 88 57 
-25.722214 -9.600028 -42.210812 92 88 58 
-25.695774 -9.617561 -42.287903 92 88 59 
-25.552217 -9.591233 -42.172142 94 88 60 
-25.517967 -9.605902 -42.236633 96 89 62 
-25.444822 -9.605970 -42.236938 97 89 64 
-25.401121 -9.617188 -42.286259 97 90 65 
-25.349943 -9.625630 -42.323383 96 89 64 
-25.329201 -9.645714 -42.411686 97 89 65 
-25.272968 -9.652358 -42.440903 97 90 66 
-25.137739 -9.628783 -42.337242 97 92 67 
-25.042545 -9.620450 -42.300602 96 92 68 
-24.917850 -9.600701 -42.213772 95 92 68 
-24.777870 -9.574929 -42.100452 94 92 67 
-24.712036 -9.577742 -42.112820 95 92 67 
-24.663950 -9.587470 -42.155594 96 93 66 
-24.631630 -9.603403 -42.225651 97 92 64 
-24.575191 -9.610000 -42.254658 97 91 60 
-24.528078 -9.620295 -42.299919 98 91 58 
-24.527250 -9.648858 -42.425514 99 91 56 
-24.415997 -9.634023 -42.360283 98 90 55 
-24.290129 -9.613314 -42.269226 97 89 55 
-24.174974 -9.596732 -42.196316 98 90 57 
-24.065159 -9.582175 -42.132313 99 91 61 
-23.986008 -9.579778 -42.121773 99 92 65 
-23.821177 -9.543040 -41.960239 100 93 67 
-23.730457 -9.535859 -41.928661 100 93 70 
-23.670158 -9.540895 -41.950806 100 94 70 
-23.619127 -9.549708 -41.989559 98 93 68 
-23.538601 -9.546615 -41.975956 96 93 66 
-23.336798 -9.494163 -41.745327 96 94 64 
-22.730999 -9.276513 -40.788334 101 99 67 
-26.758162 -9.676924 -42.226578 87 82 56 
-26.632694 -9.658010 -42.144043 88 84 57 
-26.606651 -9.675146 -42.218819 89 86 57 
-26.545786 -9.679679 -42.238598 88 87 56 
-26.515127 -9.695282 -42.306683 87 87 54 
-26.416277 -9.685968 -42.266045 88 88 55 
-26.265360 -9.657458 -42.141636 89 89 56 
-26.072142 -9.613192 -41.948471 89 90 56 
-26.007103 -9.616072 -41.961040 89 89 54 
-25.996861 -9.639285 -42.062336 89 88 54 
-25.872133 -9.620061 -41.978447 90 88 55 
-25.821959 -9.628527 -42.015392 91 88 57 
-25.835791 -9.660975 -42.156982 93 89 60 
-25.807714 -9.677893 -42.230804 94 89 61 
-25.784550 -9.696754 -42.313107 93 89 61 
-25.752279 -9.712288 -42.380894 93 90 61 
-25.628635 -9.693352 -42.298264 95 91 62 
-25.559629 -9.695032 -42.305592 96 91 63 
-25.487282 -9.695450 -42.307419 97 91 65 
-25.432579 -9.702602 -42.338631 97 91 66 
-25.384907 -9.712485 -42.381756 97 90 65 
-25.352182 -9.728163 -42.450165 97 90 65 
-25.294359 -9.734273 -42.476826 97 90 65 
-25.164490 -9.712610 -42.382298 97 91 66 
-25.073679 -9.705940 -42.353195 97 92 67 
-24.962841 -9.691456 -42.289989 97 93 68 
-24.859735 -9.679897 -42.239552 97 94 68 
-24.770908 -9.673846 -42.213146 97 94 67 
-24.695229 -9.672908 -42.209053 97 93 65 
-24.660091 -9.687893 -42.274441 97 93 63 
-24.596548 -9.691774 -42.291378 97 91 59 
-24.549726 -9.702287 -42.337254 98 91 57 
-24.570568 -9.739685 -42.500443 99 91 59 
-24.478651 -9.732476 -42.468987 98 91 59 
-24.350880 -9.710924 -42.374943 97 90 59 
-24.232130 -9.692852 -42.296082 96 90 60 
-24.116405 -9.675882 -42.222034 97 90 63 
-24.025660 -9.668862 -42.191402 97 91 66 
-23.863537 -9.632987 -42.034855 98 92 69 
-23.756254 -9.619097 -41.974239 99 93 72 
-23.697798 -9.624951 -41.999790 99 94 72 
-23.650690 -9.635467 -42.045673 98 94 70 
-23.569828 -9.632252 -42.031643 97 94 68 
-23.364388 -9.577948 -41.794682 97 94 67 
-22.703001 -9.335814 -40.738094 102 100 72 
-26.793079 -9.762958 -42.281681 86 83 56 
-26.669092 -9.744475 -42.201641 87 85 58 
-26.636686 -9.759447 -42.266479 88 87 58 
-26.577723 -9.764743 -42.289413 88 88 58 
-26.573969 -9.790410 -42.400570 87 89 57 
-26.469326 -9.778945 -42.350922 90 88 57 
-26.324400 -9.752494 -42.236362 91 89 58 
-26.138472 -9.710661 -42.055195 91 89 58 
-26.096136 -9.722090 -42.104691 91 89 58 
-26.083670 -9.744742 -42.202793 91 89 58 
-26.009018 -9.744224 -42.200550 92 90 60 
-25.941616 -9.746427 -42.210087 92 90 62 
-25.887032 -9.753470 -42.240597 94 90 63 
-25.833477 -9.760944 -42.272964 94 90 62 
-25.825541 -9.785746 -42.380375 93 91 62 
-25.794624 -9.801957 -42.450581 93 92 62 
-25.659092 -9.778393 -42.348530 94 92 62 
-25.601721 -9.784566 -42.375263 95 93 63 
-25.530174 -9.785340 -42.378620 96 93 65 
-25.459526 -9.786466 -42.383492 97 92 66 
-25.424383 -9.801284 -42.447666 97 92 65 
-25.390644 -9.816731 -42.514565 96 92 65 
-25.320208 -9.818040 -42.520233 96 91 65 
-25.205610 -9.802181 -42.451553 98 90 64 
-25.121393 -9.798079 -42.433788 98 91 65 
-25.008230 -9.782632 -42.366886 98 93 66 
-24.896635 -9.767707 -42.302246 98 95 67 
-24.809053 -9.762142 -42.278149 98 95 66 
-24.738850 -9.763403 -42.283611 97 95 64 
-24.699982 -9.777077 -42.342827 96 93 61 
-24.657890 -9.789551 -42.396851 95 91 56 
-24.598707 -9.795294 -42.421722 96 90 55 
-24.606504 -9.827823 -42.562599 97 92 60 
-24.546749 -9.833488 -42.587132 97 92 63 
-24.422733 -9.813364 -42.499981 97 92 63 
-24.314583 -9.799514 -42.440002 96 92 64 
-24.147640 -9.761812 -42.276722 96 91 64 
-24.048115 -9.751217 -42.230835 96 91 66 
-23.894796 -9.718678 -42.089916 96 93 69 
-23.784264 -9.703396 -42.023727 97 94 71 
-23.720413 -9.707123 -42.039871 98 95 71 
-23.673569 -9.717854 -42.086346 98 95 71 
-23.596115 -9.716047 -42.078522 97 94 70 
-23.389669 -9.660951 -41.839905 97 94 70 
-22.678864 -9.396539 -40.694782 103 100 76 
-26.866137 -9.809434 -42.165924 75 71 41 
-26.853685 -9.831676 -42.261536 83 80 52 
-26.837509 -9.852674 -42.351795 86 85 56 
-26.709652 -9.832674 -42.265823 87 87 58 
-26.663273 -9.842641 -42.308662 89 88 58 
-26.604025 -9.847898 -42.331264 89 89 57 
-26.624178 -9.882659 -42.480682 90 90 57 
-26.507849 -9.866811 -42.412560 92 88 57 
-26.358040 -9.838377 -42.290337 92 88 58 
-26.173374 -9.796738 -42.111351 91 88 59 
-26.129034 -9.807537 -42.157768 91 89 60 
-26.129833 -9.835387 -42.277485 91 89 61 
-26.039690 -9.829066 -42.250313 92 90 62 
-25.955006 -9.824777 -42.231873 92 90 62 
-25.923302 -9.840574 -42.299782 92 91 62 
-25.862806 -9.845501 -42.320957 93 91 61 
-25.859404 -9.872252 -42.435944 94 92 61 
-25.841459 -9.893587 -42.527660 95 93 61 
-25.689758 -9.863689 -42.399143 95 92 61 
-25.636450 -9.871507 -42.432743 96 92 62 
-25.573469 -9.875634 -42.450485 96 92 63 
-25.500069 -9.875749 -42.450981 97 92 64 
-25.451187 -9.885388 -42.492416 97 92 64 
-25.422689 -9.903025 -42.568226 97 91 64 
-25.360125 -9.907454 -42.587265 97 90 63 
-25.240477 -9.889544 -42.510277 98 90 62 
-25.161760 -9.887612 -42.501976 98 91 63 
-25.049875 -9.872598 -42.437435 98 93 64 
-24.941977 -9.859071 -42.379288 98 94 65 
-24.842735 -9.848895 -42.335548 97 95 65 
-24.778687 -9.852653 -42.351700 97 95 62 
-24.743803 -9.868064 -42.417946 95 94 59 
-24.693922 -9.877568 -42.458801 94 91 54 
-24.635424 -9.883673 -42.485043 94 90 54 
-24.643629 -9.916656 -42.626820 95 91 59 
-24.569593 -9.916643 -42.626766 96 93 63 
-24.461235 -9.902736 -42.566982 97 94 65 
-24.352274 -9.888499 -42.505787 97 94 65 
-24.189705 -9.852342 -42.350365 97 93 65 
-24.081882 -9.838330 -42.290134 96 93 66 
-23.926048 -9.804558 -42.144962 96 95 68 
-23.812105 -9.787798 -42.072922 96 95 69 
-23.748009 -9.791487 -42.088779 97 95 69 
-23.708282 -9.805278 -42.148060 97 94 69 
-23.613792 -9.796434 -42.110043 97 93 70 
-23.406103 -9.740428 -41.869305 97 94 72 
-22.637592 -9.449961 -40.620728 105 102 80 
-27.282391 -10.035757 -42.819229 79 76 47 
-26.982944 -9.952725 -42.464962 85 84 54 
-26.886673 -9.944386 -42.429382 87 87 56 
-26.770224 -9.928517 -42.361671 89 89 57 
-26.703596 -9.931089 -42.372650 91 89 57 
-26.659945 -9.942245 -42.420242 92 89 55 
-26.688690 -9.980535 -42.583614 93 89 55 
-26.542797 -9.953548 -42.468475 93 89 56 
-26.391714 -9.924460 -42.344364 93 88 57 
-26.207928 -9.882878 -42.166946 92 88 58 
-26.154774 -9.890461 -42.199299 92 88 60 
-26.150549 -9.916641 -42.311001 92 89 61 
-26.067125 -9.912850 -42.294827 91 89 61 
-25.990435 -9.911607 -42.289520 90 89 61 
-25.968515 -9.931302 -42.373554 90 90 60 
-25.901930 -9.933979 -42.384975 91 90 60 
-25.876490 -9.952496 -42.463982 94 92 61 
-25.868086 -9.977690 -42.571476 95 92 61 
-25.720602 -9.949230 -42.450047 96 91 61 
-25.667269 -9.957130 -42.483753 96 91 61 
-25.609188 -9.963228 -42.509773 97 91 62 
-25.536804 -9.963781 -42.512135 98 91 63 
-25.499598 -9.978104 -42.573242 98 90 63 
-25.476892 -9.998199 -42.658981 98 89 62 
-25.410929 -10.001387 -42.672581 98 88 61 
-25.279333 -9.978683 -42.575718 98 89 60 
-25.206675 -9.979182 -42.577843 98 90 61 
-25.083080 -9.959458 -42.493687 98 92 63 
-24.974760 -9.945701 -42.434990 98 93 64 
-24.881044 -9.937696 -42.400833 98 94 64 
-24.814590 -9.940563 -42.413067 98 94 63 
-24.814074 -9.969940 -42.538414 98 94 61 
-24.760700 -9.978193 -42.573624 96 92 57 
-24.686075 -9.977904 -42.572392 95 92 56 
-24.681892 -10.006172 -42.693001 97 92 60 
-24.599451 -10.002789 -42.678566 98 93 63 
-24.492573 -9.989418 -42.621517 99 94 64 
-24.403614 -9.983297 -42.595402 100 94 64 
-24.249929 -9.950579 -42.455803 100 94 64 
-24.150257 -9.939892 -42.410206 99 94 64 
-24.005867 -9.910679 -42.285564 98 96 64 
-23.894901 -9.895128 -42.219212 97 96 64 
-23.834297 -9.900401 -42.241711 97 96 64 
-23.779549 -9.908145 -42.274754 98 93 65 
-23.675327 -9.895261 -42.219780 98 93 66 
-23.458527 -9.835096 -41.963078 100 94 68 
-22.598587 -9.504079 -40.550735 107 102 76 
-27.553667 -10.182877 -43.127480 75 72 45 
-27.331064 -10.128133 -42.895622 80 77 50 
-27.027905 -10.043156 -42.535721 86 84 56 
-26.949276 -10.041374 -42.528172 89 87 58 
-26.818832 -10.020224 -42.438595 91 88 58 
-26.743889 -10.019749 -42.436584 92 88 59 
-26.732460 -10.043134 -42.535625 93 88 59 
-26.765320 -10.083334 -42.705887 93 88 59 
-26.639029 -10.063633 -42.622444 94 88 60 
-26.491274 -10.035691 -42.504105 94 88 61 
-26.294651 -9.989029 -42.306477 95 87 60 
-26.209051 -9.984401 -42.286873 95 87 61 
-26.199442 -10.008776 -42.390110 95 88 61 
-26.109318 -10.002442 -42.363285 93 87 61 
-26.025543 -9.998514 -42.346649 91 87 60 
-26.001783 -10.017684 -42.427841 91 88 60 
-25.923822 -10.016023 -42.420803 91 90 61 
-25.906683 -10.037917 -42.513531 93 92 62 
-25.899868 -10.063949 -42.623783 94 92 62 
-25.759710 -10.038168 -42.514591 94 91 61 
-25.710321 -10.047711 -42.555012 94 90 61 
-25.636015 -10.047544 -42.554306 97 91 63 
-25.569378 -10.050391 -42.566360 99 91 64 
-25.531958 -10.064772 -42.627266 99 90 62 
-25.506168 -10.083834 -42.708004 98 88 61 
-25.442150 -10.087850 -42.725010 99 87 60 
-25.318670 -10.068243 -42.641972 98 87 59 
-25.243816 -10.067915 -42.640579 99 89 60 
-25.141939 -10.056776 -42.593403 100 90 63 
-25.032667 -10.042604 -42.533382 100 91 64 
-24.944777 -10.036952 -42.509441 100 92 65 
-24.895058 -10.046670 -42.550602 101 93 65 
-24.869930 -10.066401 -42.634167 100 93 63 
-24.877905 -10.099687 -42.775143 99 93 61 
-24.774874 -10.087973 -42.725533 98 93 59 
-24.721209 -10.096350 -42.761009 98 93 62 
-24.620029 -10.085313 -42.714268 99 93 63 
-24.521824 -10.075432 -42.672417 101 94 64 
-24.436598 -10.070841 -42.652973 102 94 64 
-24.293011 -10.042096 -42.531231 102 95 63 
-24.201601 -10.034810 -42.500374 101 95 62 
-24.060003 -10.006607 -42.380924 100 96 61 
-23.959444 -9.995351 -42.333248 99 97 60 
-23.924122 -10.011325 -42.400906 98 97 59 
-23.880653 -10.023978 -42.454494 97 96 61 
-23.746178 -9.998390 -42.346127 98 95 62 
-23.519524 -9.933712 -42.072193 99 96 63 
-22.543264 -9.551041 -40.451466 107 105 72 
-27.586323 -10.269908 -43.178593 77 73 48 
-27.360477 -10.213584 -42.941784 82 77 50 
-27.089191 -10.139943 -42.632172 87 82 54 
-27.040026 -10.149270 -42.671383 90 85 55 
-26.867350 -10.112162 -42.515369 92 87 56 
-26.793932 -10.112310 -42.515991 94 87 57 
-26.768047 -10.130449 -42.592251 95 87 58 
-26.805361 -10.172672 -42.769775 95 87 58 
-26.678768 -10.152754 -42.686028 94 88 58 
-26.559456 -10.135503 -42.613503 95 88 58 
-26.358646 -10.086967 -42.409439 95 87 57 
-26.259317 -10.077105 -42.367973 96 87 58 
-26.257442 -10.104690 -42.483952 97 88 58 
-26.190058 -10.107149 -42.494289 95 87 57 
-26.083719 -10.094547 -42.441307 93 88 57 
-26.055916 -10.112353 -42.516171 93 90 58 
-25.972275 -10.108527 -42.500088 93 91 59 
-25.944914 -10.126647 -42.576267 93 92 60 
-25.948410 -10.156949 -42.703671 93 91 60 
-25.802776 -10.128883 -42.585670 94 90 59 
-25.745670 -10.135508 -42.613522 95 91 60 
-25.672083 -10.135664 -42.614178 98 92 62 
-25.610725 -10.140663 -42.635197 99 91 62 
-25.564562 -10.151725 -42.681702 100 90 61 
-25.551096 -10.175873 -42.783230 100 89 60 
-25.470072 -10.173178 -42.771900 100 88 60 
-25.361948 -10.159611 -42.714859 100 88 60 
-25.276812 -10.155200 -42.696316 100 89 61 
-25.170448 -10.142210 -42.641701 101 90 63 
-25.065662 -10.129781 -42.589443 101 91 65 
-24.973471 -10.122383 -42.558342 101 92 65 
-24.926947 -10.133507 -42.605110 102 92 65 
-24.895288 -10.150758 -42.677639 100 92 63 
-24.893524 -10.180337 -42.801998 99 93 61 
-24.813641 -10.178050 -42.792385 98 94 61 
-24.747776 -10.181518 -42.806965 97 93 63 
-24.648151 -10.171074 -42.763058 98 94 64 
-24.548576 -10.160589 -42.718975 100 95 65 
-24.463099 -10.155892 -42.699226 102 95 65 
-24.317307 -10.126052 -42.573765 102 95 64 
-24.224810 -10.118290 -42.541130 101 96 62 
-24.079042 -10.088161 -42.414459 100 97 61 
-23.969683 -10.073149 -42.351341 99 97 60 
-23.940928 -10.092022 -42.430691 98 97 60 
-23.910208 -10.110180 -42.507034 97 98 61 
-23.796312 -10.093172 -42.435528 96 98 62 
-23.544035 -10.017182 -42.116039 98 99 64 
-22.508802 -9.606561 -40.389626 107 108 74 
-27.610916 -10.354094 -43.217087 79 75 48 
-27.438221 -10.317369 -43.063801 85 80 51 
-27.134535 -10.231054 -42.703529 88 82 52 
-27.108110 -10.249094 -42.778824 90 85 52 
-26.961977 -10.221848 -42.665104 92 86 52 
-26.914217 -10.231852 -42.706860 93 86 52 
-26.926228 -10.264694 -42.843941 94 86 52 
-26.918558 -10.290197 -42.950386 95 87 53 
-26.768139 -10.261120 -42.829021 94 88 54 
-26.628046 -10.235850 -42.723549 94 88 55 
-26.463253 -10.200918 -42.577747 94 86 53 
-26.384542 -10.199067 -42.570019 94 86 53 
-26.305733 -10.197166 -42.562084 96 88 55 
-26.234665 -10.198264 -42.566669 97 89 56 
-26.164391 -10.199677 -42.572567 97 90 56 
-26.100706 -10.203675 -42.589256 95 91 56 
-26.010948 -10.197474 -42.563370 94 92 57 
-26.005877 -10.224533 -42.676311 93 91 57 
-25.993423 -10.248836 -42.777748 94 91 58 
-25.838022 -10.216754 -42.643841 95 91 58 
-25.789042 -10.226689 -42.685310 97 91 59 
-25.736225 -10.235156 -42.720650 98 91 59 
-25.676886 -10.241070 -42.745335 99 90 59 
-25.610172 -10.244069 -42.757854 101 90 59 
-25.585306 -10.263873 -42.840511 101 90 59 
-25.512917 -10.264672 -42.843849 101 90 59 
-25.405672 -10.251411 -42.788498 101 90 61 
-25.323013 -10.248023 -42.774357 100 91 62 
-25.208828 -10.231818 -42.706718 100 91 64 
-25.098696 -10.217169 -42.645573 101 92 66 
-25.007320 -10.210089 -42.616024 101 93 66 
-24.971382 -10.225670 -42.681057 100 93 65 
-24.937191 -10.242061 -42.749470 98 93 63 
-24.921492 -10.266167 -42.850086 98 94 61 
-24.845882 -10.265664 -42.847988 97 95 62 
-24.788776 -10.272826 -42.877884 96 95 64 
-24.676773 -10.257213 -42.812714 97 95 65 
-24.575748 -10.246082 -42.766258 99 96 66 
-24.503759 -10.247026 -42.770199 101 96 67 
-24.375326 -10.224301 -42.675343 102 96 67 
-24.350058 -10.244842 -42.761078 102 97 67 
-24.314165 -10.261024 -42.828621 102 97 68 
-24.252338 -10.266328 -42.850758 101 98 68 
-24.154562 -10.256399 -42.809315 100 98 67 
-24.062994 -10.249053 -42.778656 98 98 67 
-23.591320 -10.110566 -42.200623 98 100 69 
-22.432558 -9.643903 -40.252811 108 110 79 
-27.627848 -10.435518 -43.243587 80 76 49 
-27.494356 -10.413394 -43.151905 87 82 53 
-27.217409 -10.336667 -42.833958 89 85 54 
-27.144411 -10.337187 -42.836109 90 86 51 
-27.043262 -10.326961 -42.793736 90 85 49 
-26.981678 -10.331827 -42.813900 91 85 49 
-26.968567 -10.355333 -42.911308 92 86 50 
-26.956871 -10.379516 -43.011517 93 87 52 
-26.795334 -10.345976 -42.872536 94 89 54 
-26.662228 -10.323257 -42.778393 94 89 54 
-26.482319 -10.282241 -42.608425 94 86 53 
-26.405258 -10.281038 -42.603439 95 86 53 
-26.325825 -10.278903 -42.594593 97 88 55 
-26.264221 -10.283737 -42.614624 99 89 56 
-26.183432 -10.281065 -42.603550 98 90 56 
-26.124226 -10.286876 -42.627632 96 90 56 
-26.055471 -10.288950 -42.636227 94 90 55 
-26.040276 -10.312245 -42.732758 94 90 56 
-26.026018 -10.336047 -42.831390 95 92 58 
-25.881004 -10.307907 -42.714779 97 92 58 
-25.828491 -10.316552 -42.750607 97 91 57 
-25.804718 -10.336761 -42.834347 97 90 56 
-25.747652 -10.343710 -42.863140 98 89 56 
-25.660080 -10.338409 -42.841179 100 89 57 
-25.623755 -10.353785 -42.904892 101 90 57 
-25.537151 -10.348875 -42.884548 101 90 58 
-25.446079 -10.342120 -42.856556 100 92 61 
-25.356440 -10.335910 -42.830818 99 92 62 
-25.268433 -10.330330 -42.807697 98 93 64 
-25.182407 -10.325530 -42.787807 98 94 65 
-25.079525 -10.313769 -42.739075 98 94 65 
-25.019787 -10.319734 -42.763790 98 94 64 
-24.967474 -10.328806 -42.801384 97 93 62 
-24.960779 -10.356860 -42.917637 96 94 60 
-24.885771 -10.356653 -42.916779 97 96 60 
-24.816254 -10.358737 -42.925411 96 96 63 
-24.705666 -10.343637 -42.862843 96 96 64 
-24.599831 -10.330442 -42.808163 98 96 65 
-24.530830 -10.332684 -42.817451 100 96 68 
-24.415462 -10.315348 -42.745613 101 96 69 
-24.392282 -10.336973 -42.835228 101 96 69 
-24.357605 -10.353845 -42.905140 102 97 71 
-24.289595 -10.356606 -42.916584 102 98 71 
-24.195560 -10.348255 -42.881977 101 98 70 
-24.090269 -10.335023 -42.827145 99 97 68 
-23.610191 -10.191978 -42.234383 99 98 71 
-22.401709 -9.700428 -40.197456 109 110 82 
-27.649612 -10.518874 -43.277653 80 78 50 
-27.555687 -10.511706 -43.248161 87 84 56 
-27.361225 -10.466043 -43.060291 90 88 58 
-27.252308 -10.452940 -43.006382 90 87 55 
-27.107946 -10.426133 -42.896091 90 86 52 
-27.035376 -10.426867 -42.899109 91 86 52 
-27.017513 -10.448762 -42.989189 92 87 53 
-26.999369 -10.470670 -43.079327 92 88 54 
-26.827637 -10.432970 -42.924217 93 89 55 
-26.691202 -10.408826 -42.824883 94 89 55 
-26.545042 -10.380742 -42.709339 95 88 55 
-26.441692 -10.369291 -42.662228 96 87 55 
-26.361122 -10.366734 -42.651703 98 89 57 
-26.313595 -10.377192 -42.694733 98 90 59 
-26.236591 -10.376053 -42.690048 96 90 59 
-26.173925 -10.380593 -42.708729 95 89 59 
-26.133133 -10.393860 -42.763309 93 89 59 
-26.105036 -10.412265 -42.839035 93 91 59 
-26.058748 -10.423499 -42.885254 94 92 59 
-25.919973 -10.397696 -42.779095 95 92 58 
-25.887308 -10.414434 -42.847958 95 90 55 
-25.853415 -10.430773 -42.915180 96 89 54 
-25.793922 -10.436847 -42.940170 97 89 54 
-25.710247 -10.433144 -42.924934 99 90 55 
-25.681643 -10.451831 -43.001820 99 91 55 
-25.591494 -10.445507 -42.975803 99 91 56 
-25.486710 -10.433156 -42.924984 99 92 59 
-25.389971 -10.424035 -42.887459 99 93 61 
-25.315624 -10.424081 -42.887646 98 94 62 
-25.232489 -10.420497 -42.872902 97 93 63 
-25.130564 -10.409109 -42.826050 97 93 63 
-25.068201 -10.414089 -42.846539 97 93 62 
-25.009604 -10.420668 -42.873604 96 93 60 
-24.989336 -10.443305 -42.966740 96 95 59 
-24.914766 -10.443316 -42.966782 97 95 59 
-24.847788 -10.446518 -42.979958 97 95 62 
-24.744423 -10.434395 -42.930084 97 94 63 
-24.633364 -10.418945 -42.866520 98 94 64 
-24.561699 -10.420115 -42.871330 99 95 67 
-24.459198 -10.408170 -42.822182 100 95 67 
-24.434805 -10.429490 -42.909901 100 95 67 
-24.430162 -10.459397 -43.032948 101 96 67 
-24.375399 -10.467963 -43.068192 101 97 66 
-24.259735 -10.450348 -42.995716 100 97 66 
-24.126947 -10.425224 -42.892353 98 96 66 
-23.617874 -10.268641 -42.248123 99 97 71 
-22.381002 -9.761185 -40.160301 110 110 84 
-27.663363 -10.599277 -43.299175 80 79 50 
-27.577963 -10.595348 -43.283123 87 85 56 
-27.389566 -10.551718 -43.104889 90 88 59 
-27.303596 -10.547417 -43.087318 91 87 57 
-27.203377 -10.537572 -43.047104 91 86 56 
-27.171736 -10.554311 -43.115482 93 87 57 
-27.142759 -10.572180 -43.188480 94 88 58 
-27.056864 -10.567916 -43.171062 93 88 57 
-26.855110 -10.518251 -42.968178 93 89 56 
-26.725327 -10.496576 -42.879631 94 88 56 
-26.590883 -10.472946 -42.783096 95 89 57 
-26.501757 -10.467080 -42.759136 97 89 58 
-26.392914 -10.453373 -42.703140 97 89 59 
-26.347986 -10.464974 -42.750534 96 89 60 
-26.277668 -10.466529 -42.756886 96 90 62 
-26.251904 -10.485888 -42.835968 95 91 63 
-26.255386 -10.517073 -42.963360 95 92 63 
-26.169867 -10.512681 -42.945423 94 92 62 
-26.086521 -10.509142 -42.930962 94 91 59 
-25.993748 -10.501772 -42.900856 95 89 56 
-25.934513 -10.507949 -42.926090 96 88 54 
-25.890097 -10.520184 -42.976067 97 88 53 
-25.831936 -10.526887 -43.003456 98 88 53 
-25.756512 -10.526574 -43.002174 99 89 53 
-25.707897 -10.537249 -43.045780 99 90 55 
-25.620535 -10.532056 -43.024570 99 92 57 
-25.511572 -10.517928 -42.966858 99 93 59 
-25.409025 -10.506371 -42.919643 99 93 61 
-25.349648 -10.512648 -42.945286 98 93 61 
-25.274385 -10.512355 -42.944088 97 93 61 
-25.173141 -10.501222 -42.898605 97 93 61 
-25.095280 -10.499805 -42.892822 97 93 61 
-25.026829 -10.502330 -42.903133 96 93 60 
-25.005653 -10.524767 -42.994793 96 95 59 
-24.939487 -10.528347 -43.009418 96 95 59 
-24.871498 -10.531175 -43.020969 97 94 62 
-24.809820 -10.536701 -43.043545 99 95 66 
-24.751944 -10.543880 -43.072868 101 96 68 
-24.613054 -10.516487 -42.960968 101 96 69 
-24.495689 -10.498153 -42.886070 100 95 69 
-24.450834 -10.510878 -42.938053 100 95 67 
-24.457199 -10.545765 -43.080570 100 95 66 
-24.404722 -10.555417 -43.119999 100 96 64 
-24.280764 -10.534116 -43.032986 100 96 65 
-24.151321 -10.510298 -42.935684 98 95 67 
-23.638044 -10.350821 -42.284203 101 98 74 
-27.712662 -10.693473 -43.376339 83 81 52 
-27.593245 -10.676405 -43.307110 87 85 56 
-27.408710 -10.633981 -43.135021 90 88 59 
-27.335117 -10.634484 -43.137062 90 87 57 
-27.221844 -10.619511 -43.076324 91 86 56 
-27.194824 -10.638196 -43.152119 92 87 57 
-27.167971 -10.657049 -43.228596 94 89 59 
-27.089855 -10.655843 -43.223701 94 89 58 
-26.887550 -10.605645 -43.020081 94 89 57 
-26.763908 -10.586281 -42.941536 95 89 57 
-26.618555 -10.558198 -42.827621 95 89 58 
-26.536995 -10.555331 -42.815994 98 90 60 
-26.415253 -10.536421 -42.739285 96 89 60 
-26.366873 -10.546749 -42.781181 95 89 60 
-26.307358 -10.552670 -42.805195 95 90 60 
-26.271168 -10.568006 -42.867401 95 91 62 
-26.280466 -10.601779 -43.004398 95 93 62 
-26.234861 -10.613533 -43.052078 95 91 59 
-26.152489 -10.610438 -43.039524 94 90 56 
-26.036339 -10.593582 -42.971149 96 89 54 
-25.977814 -10.600142 -42.997761 98 88 53 
-25.935070 -10.613198 -43.050720 99 88 52 
-25.860399 -10.613227 -43.050838 98 88 52 
-25.789934 -10.614987 -43.057976 98 88 53 
-25.739061 -10.624846 -43.097965 99 89 54 
-25.637091 -10.613606 -43.052376 99 92 57 
-25.528229 -10.599440 -42.994911 99 93 59 
-25.447031 -10.596710 -42.983841 98 92 60 
-25.388287 -10.603343 -43.010742 97 92 60 
-25.312027 -10.602677 -43.008045 96 92 60 
-25.192207 -10.583709 -42.931099 97 93 61 
-25.113352 -10.581886 -42.923710 97 93 61 
-25.072554 -10.596139 -42.981522 97 95 61 
-25.021994 -10.606338 -43.022892 96 95 59 
-24.964289 -10.613560 -43.052185 96 95 58 
-24.899607 -10.617850 -43.069592 98 95 62 
-24.845953 -10.626884 -43.106232 101 96 66 
-24.789120 -10.634607 -43.137562 102 98 69 
-24.654383 -10.608855 -43.033104 102 98 70 
-24.550024 -10.596059 -42.981197 102 96 71 
-24.511332 -10.611613 -43.044289 101 96 70 
-24.502697 -10.640315 -43.160713 100 95 69 
-24.466084 -10.657005 -43.228416 99 95 68 
-24.310284 -10.621724 -43.085304 100 95 67 
-24.194374 -10.603707 -43.012222 100 95 69 
-23.671364 -10.438925 -42.343807 104 100 78 
-27.729994 -10.775514 -43.403469 83 80 51 
-27.608820 -10.757660 -43.331554 87 85 56 
-27.455845 -10.727283 -43.209198 90 86 58 
-27.356377 -10.717704 -43.170612 90 87 57 
-27.254448 -10.707105 -43.127918 91 87 57 
-27.222326 -10.723947 -43.195755 92 88 58 
-27.193600 -10.742224 -43.269375 93 89 58 
-27.130840 -10.747119 -43.289097 94 91 59 
-26.920004 -10.693224 -43.072006 95 90 57 
-26.792572 -10.672251 -42.987526 95 89 56 
-26.645887 -10.643469 -42.871593 95 89 57 
-26.585989 -10.649290 -42.895042 97 89 57 
-26.456295 -10.627108 -42.805691 96 89 57 
-26.428261 -10.645750 -42.880783 95 89 56 
-26.369295 -10.652003 -42.905972 94 90 56 
-26.369297 -10.682179 -43.027523 94 91 57 
-26.408241 -10.728348 -43.213486 93 92 57 
-26.308250 -10.718176 -43.172512 93 91 56 
-26.198204 -10.703837 -43.114758 93 90 54 
-26.090225 -10.690264 -43.060085 94 89 52 
-26.036600 -10.698947 -43.095062 96 90 52 
-25.984215 -10.708193 -43.132298 97 89 51 
-25.907175 -10.707301 -43.128708 96 88 51 
-25.823448 -10.703632 -43.113930 97 89 53 
-25.786489 -10.719383 -43.177376 97 90 55 
-25.677668 -10.705267 -43.120514 97 91 57 
-25.561460 -10.687979 -43.050880 98 92 58 
-25.484976 -10.687248 -43.047935 97 91 59 
-25.422312 -10.692326 -43.068386 96 92 59 
-25.340103 -10.689188 -43.055752 96 92 61 
-25.225594 -10.672367 -42.987995 96 92 61 
-25.131296 -10.664021 -42.954380 97 93 61 
-25.089676 -10.678047 -43.010876 97 95 61 
-25.038319 -10.687999 -43.050961 96 95 59 
-24.997597 -10.702564 -43.109627 95 94 57 
-25.000046 -10.735755 -43.243320 96 94 58 
-24.939213 -10.741889 -43.268032 99 95 62 
-24.842308 -10.732477 -43.230118 101 97 66 
-24.706053 -10.705956 -43.123291 101 96 68 
-24.578819 -10.683195 -43.031612 101 96 70 
-24.543573 -10.700399 -43.100910 100 95 71 
-24.536694 -10.730114 -43.220600 100 94 71 
-24.514843 -10.753444 -43.314568 101 95 71 
-24.383259 -10.728634 -43.214638 102 95 71 
-24.256708 -10.705893 -43.123035 102 96 72 
-23.677059 -10.514967 -42.353992 105 101 78 
-27.745121 -10.856786 -43.427143 83 79 51 
-27.636700 -10.843827 -43.375309 88 84 56 
-27.494661 -10.817572 -43.270287 91 87 59 
-27.399052 -10.809489 -43.237957 91 88 58 
-27.295734 -10.798312 -43.193249 91 89 57 
-27.245775 -10.808241 -43.232964 92 89 58 
-27.215607 -10.826097 -43.304390 92 89 58 
-27.156197 -10.832389 -43.329556 94 91 58 
-26.952410 -10.780964 -43.123856 96 91 57 
-26.830755 -10.762197 -43.048786 96 90 55 
-26.686092 -10.734071 -42.936283 95 89 55 
-26.655788 -10.751915 -43.007660 96 88 53 
-26.548895 -10.738879 -42.955517 95 89 52 
-26.521889 -10.758175 -43.032700 94 89 51 
-26.462938 -10.764585 -43.058342 93 89 51 
-26.463484 -10.795302 -43.181210 94 91 52 
-26.456373 -10.823061 -43.292244 93 92 54 
-26.347160 -10.809092 -43.236366 93 93 56 
-26.244049 -10.797551 -43.190205 93 92 55 
-26.144075 -10.787240 -43.148960 94 91 54 
-26.072044 -10.788432 -43.153728 95 91 53 
-26.029507 -10.801870 -43.207481 95 89 52 
-25.970930 -10.808711 -43.234844 95 90 53 
-25.922874 -10.819983 -43.279930 95 92 55 
-25.889174 -10.837328 -43.349312 94 93 56 
-25.777359 -10.821981 -43.287926 93 93 57 
-25.652077 -10.800875 -43.203499 94 93 59 
-25.547913 -10.788561 -43.154243 95 93 60 
-25.473774 -10.788893 -43.155571 94 93 60 
-25.373167 -10.777983 -43.111931 95 93 61 
-25.258778 -10.761136 -43.044544 95 93 61 
-25.157806 -10.749923 -42.999691 96 93 61 
-25.142466 -10.775342 -43.101368 97 93 59 
-25.107204 -10.792351 -43.169403 96 93 56 
-25.038399 -10.794998 -43.179993 95 93 55 
-25.039871 -10.828053 -43.312210 96 93 56 
-25.006994 -10.846407 -43.385628 97 94 59 
-24.965960 -10.861323 -43.445293 98 95 62 
-24.826616 -10.833433 -43.333733 98 95 64 
-24.704679 -10.812990 -43.251961 98 95 66 
-24.615904 -10.806983 -43.227932 98 94 68 
-24.586594 -10.827125 -43.308498 99 94 68 
