ply
format ascii 1.0
element vertex 1110
property float x
property float y
property float z
property uchar red
property uchar green
property uchar blue
end_header
-18.366796 18.247532 -68.696587 107 100 73 
-18.226385 18.226385 -68.616982 107 100 74 
-18.079906 18.198853 -68.513329 108 100 76 
-17.930040 18.167524 -68.395386 109 101 79 
-17.791393 18.147223 -68.318954 110 101 80 
-17.645113 18.118807 -68.211983 111 100 81 
-17.517349 18.109152 -68.175629 111 100 83 
-17.373949 18.083090 -68.077515 110 101 83 
-17.220982 18.046644 -67.940308 109 101 82 
-17.061401 18.002720 -67.774948 109 102 82 
-16.902292 17.958687 -67.609169 108 102 81 
-16.748314 17.919525 -67.461739 108 102 80 
-16.604353 17.890606 -67.352867 109 103 80 
-16.426521 17.824522 -67.104088 108 104 81 
-16.278545 17.790125 -66.974586 108 104 80 
-16.133883 17.758879 -66.856956 108 104 80 
-15.988986 17.726919 -66.736633 107 104 80 
-15.842886 17.693150 -66.609505 108 104 80 
-15.685143 17.645786 -66.431190 110 104 79 
-26.192261 17.160446 -65.029060 106 97 71 
-26.161774 17.214674 -65.234550 105 97 72 
-26.124224 17.264704 -65.424141 105 97 72 
-26.095427 17.320982 -65.637405 104 98 72 
-26.052927 17.368618 -65.817917 103 98 73 
-26.000202 17.409826 -65.974083 103 99 75 
-25.943474 17.448708 -66.121422 102 99 76 
-25.886122 17.487513 -66.268471 101 98 75 
-25.845959 17.538330 -66.461037 100 98 74 
-25.803053 17.587730 -66.648247 101 97 73 
-25.732809 17.618860 -66.766205 101 97 73 
-25.671690 17.656548 -66.909019 101 96 73 
-25.610172 17.694300 -67.052086 101 94 73 
-25.554892 17.736729 -67.212868 101 92 72 
-25.484131 17.768751 -67.334213 102 92 73 
-25.421421 17.806709 -67.478058 103 92 74 
-25.343672 17.834436 -67.583122 102 91 73 
-25.279537 17.872044 -67.725639 100 90 73 
-25.208431 17.905054 -67.850731 98 89 72 
-25.125097 17.929647 -67.943924 98 89 74 
-25.031448 17.947077 -68.009972 99 90 75 
-24.938463 17.965149 -68.078461 100 91 75 
-24.841537 17.980541 -68.136787 99 90 74 
-24.751957 18.001423 -68.215919 97 88 70 
-24.678314 18.034153 -68.339951 95 86 66 
-24.597481 18.061918 -68.445168 93 84 64 
-24.522959 18.094610 -68.569046 93 84 64 
-24.431410 18.114998 -68.646301 94 85 66 
-24.333677 18.130976 -68.706856 96 87 68 
-24.245331 18.154139 -68.794632 96 87 69 
-24.151236 18.173206 -68.866890 95 87 69 
-24.066143 18.199272 -68.965668 94 86 67 
-23.982342 18.226580 -69.069145 94 86 65 
-23.886501 18.244967 -69.138817 95 88 65 
-23.777714 18.253597 -69.171532 97 89 67 
-23.681650 18.272137 -69.241783 99 90 71 
-23.583796 18.289474 -69.307480 100 92 73 
-23.477091 18.300093 -69.347717 101 93 75 
-23.376986 18.315989 -69.407959 101 93 73 
-23.268238 18.325243 -69.443031 100 93 70 
-23.164360 18.338451 -69.493080 100 93 68 
-23.066767 18.356800 -69.562607 100 93 65 
-22.951908 18.361526 -69.580521 99 93 64 
-22.844587 18.372366 -69.621597 99 92 66 
-22.743498 18.388359 -69.682205 101 94 68 
-22.634844 18.398376 -69.720161 102 95 70 
-22.516054 18.400215 -69.727135 101 95 70 
-22.397306 18.402111 -69.734314 99 94 71 
-22.280443 18.405582 -69.747475 100 95 72 
-22.154919 18.401901 -69.733521 100 96 73 
-22.028032 18.397038 -69.715096 100 96 73 
-21.905533 18.395807 -69.710426 100 95 72 
-21.796282 18.405748 -69.748100 101 94 71 
-21.689335 18.417759 -69.793617 102 94 70 
-21.578707 18.426760 -69.827721 103 93 69 
-21.460104 18.429016 -69.836273 103 93 68 
-21.324123 18.416288 -69.788040 105 94 67 
-21.180948 18.397165 -69.715576 107 94 68 
-21.060726 18.397875 -69.718262 108 94 68 
-20.933800 18.392704 -69.698662 108 94 69 
-20.814276 18.394011 -69.703621 107 94 72 
-20.684477 18.386202 -69.674026 107 94 74 
-20.559347 18.382475 -69.659904 106 96 73 
-20.434393 18.378862 -69.646217 106 96 72 
-20.296215 18.363241 -69.587021 106 97 73 
-20.155571 18.345192 -69.518616 106 97 73 
-20.012463 18.324665 -69.440834 106 96 72 
-19.879572 18.313303 -69.397781 104 96 72 
-19.748014 18.303038 -69.358879 104 97 73 
-19.602217 18.279367 -69.269188 106 98 74 
-19.469641 18.267811 -69.225395 107 99 75 
-19.347628 18.266083 -69.218842 107 100 75 
-19.205219 18.244957 -69.138786 107 100 74 
-19.059179 18.220097 -69.044571 107 99 73 
-18.926653 18.207920 -68.998428 107 100 73 
-18.789412 18.191023 -68.934402 107 100 73 
-18.636518 18.158661 -68.811768 107 100 73 
-18.504110 18.145966 -68.763664 106 100 74 
-18.375811 18.137163 -68.730301 106 100 76 
-18.235590 18.116404 -68.651634 107 101 77 
-18.090149 18.090149 -68.552147 107 101 79 
-17.937220 18.056009 -68.422768 108 101 81 
-17.802290 18.039654 -68.360794 109 101 83 
-17.657476 18.012997 -68.259773 109 100 84 
-17.523630 17.997242 -68.200073 110 100 85 
-17.380083 17.971243 -68.101547 109 101 85 
-17.226673 17.934618 -67.962761 108 101 84 
-17.065403 17.889250 -67.790840 108 102 82 
-16.905512 17.844707 -67.622047 108 102 81 
-16.753654 17.808081 -67.483253 108 102 79 
-16.612299 17.782179 -67.385101 108 103 78 
-16.441086 17.723724 -67.163589 109 103 78 
-16.292213 17.688688 -67.030815 109 103 77 
-16.151951 17.662563 -66.931824 109 103 76 
-16.004730 17.628399 -66.802353 108 103 76 
-15.854850 17.590782 -66.659805 110 104 77 
-15.695784 17.542347 -66.476257 111 104 76 
-26.183378 17.041767 -65.007004 106 97 70 
-26.143064 17.089190 -65.187897 105 98 69 
-26.104111 17.137917 -65.373772 103 98 69 
-26.067989 17.188936 -65.568390 101 98 68 
-26.033079 17.241205 -65.767776 101 99 69 
-25.983147 17.283943 -65.930801 101 99 71 
-25.934586 17.327974 -66.098763 102 98 73 
-25.881372 17.369276 -66.256317 102 97 74 
-25.839661 17.418701 -66.444847 102 97 76 
-25.795490 17.466902 -66.628708 102 97 77 
-25.729319 17.500572 -66.757149 102 96 75 
-25.668625 17.538292 -66.901031 102 95 75 
-25.606987 17.575705 -67.043747 102 94 75 
-25.552631 17.618481 -67.206917 101 93 73 
-25.482534 17.650745 -67.330002 102 93 73 
-25.419743 17.688393 -67.473602 103 92 73 
-25.342033 17.715958 -67.578751 102 91 72 
-25.277958 17.753357 -67.721413 100 91 72 
-25.205767 17.785378 -67.843559 100 91 73 
-25.122690 17.809982 -67.937416 99 91 72 
-25.029795 17.827826 -68.005478 99 91 73 
-24.936996 17.845907 -68.074455 99 91 74 
-24.839899 17.861071 -68.132294 99 90 73 
-24.748777 17.880695 -68.207161 98 89 72 
-24.673130 17.911743 -68.325592 97 89 69 
-24.591734 17.938898 -68.429176 95 87 67 
-24.519184 17.972799 -68.558495 95 87 65 
-24.428513 17.993685 -68.638161 96 88 66 
-24.332413 18.010757 -68.703285 97 89 67 
-24.245445 18.034790 -68.794960 97 89 68 
-24.151104 18.053547 -68.866516 97 89 67 
-24.066355 18.079700 -68.966270 96 88 65 
-23.983986 18.107908 -69.073875 96 89 63 
-23.889668 18.127337 -69.147987 97 90 62 
-23.783175 18.137672 -69.187416 98 90 62 
-23.689594 18.158014 -69.265007 99 90 64 
-23.590973 18.174677 -69.328575 100 92 67 
-23.482071 18.183552 -69.362427 100 93 70 
-23.379745 18.197636 -69.416145 100 94 70 
-23.270218 18.206232 -69.448936 100 94 69 
-23.166849 18.219761 -69.500549 100 94 67 
-23.069151 18.237915 -69.569794 100 94 66 
-22.953983 18.242376 -69.586815 100 93 64 
-22.846718 18.253199 -69.628090 100 92 65 
-22.746685 18.269945 -69.691971 101 92 66 
-22.638809 18.280535 -69.732376 102 93 67 
-22.520161 18.282497 -69.739853 101 94 67 
-22.405054 18.287369 -69.758438 100 93 67 
-22.288877 18.291416 -69.773880 100 93 68 
-22.162758 18.287302 -69.758186 101 95 69 
-22.034725 18.281557 -69.736275 102 96 70 
-21.910841 18.279211 -69.727318 102 96 71 
-21.799845 18.287647 -69.759499 101 95 70 
-21.694189 18.300684 -69.809235 102 96 69 
-21.583294 18.309423 -69.842575 102 95 68 
-21.467243 18.313864 -69.859505 102 95 65 
-21.331144 18.301151 -69.811012 103 94 64 
-21.188110 18.282312 -69.739151 105 94 66 
-21.066011 18.281424 -69.735764 107 95 67 
-20.938643 18.275925 -69.714790 107 95 69 
-20.818518 18.276722 -69.717827 107 95 71 
-20.689871 18.270004 -69.692200 107 94 72 
-20.564371 18.266001 -69.676933 106 96 71 
-20.438347 18.261482 -69.659691 106 97 71 
-20.299906 18.245749 -69.599670 106 97 72 
-20.158138 18.226820 -69.527473 106 97 73 
-20.018377 18.209488 -69.461357 106 97 74 
-19.888807 18.201271 -69.430016 105 97 75 
-19.754719 18.188795 -69.382423 105 97 75 
-19.607077 18.163610 -69.286354 105 97 74 
-19.474430 18.152092 -69.242416 106 99 74 
-19.350435 18.148544 -69.228882 107 100 75 
-19.209896 18.129339 -69.155624 107 100 75 
-19.064159 18.104956 -69.062614 107 100 73 
-18.931837 18.093084 -69.017334 108 100 74 
-18.794203 18.075953 -68.951981 108 100 74 
-18.641296 18.043818 -68.829399 107 100 74 
-18.508213 18.030582 -68.778908 105 100 74 
-18.380444 18.022383 -68.747635 105 101 77 
-18.241396 18.002947 -68.673492 107 102 79 
-18.094547 17.975504 -68.568810 107 102 80 
-17.942635 17.942635 -68.443428 107 102 82 
-17.807364 17.926079 -68.380272 108 101 84 
-17.662918 17.900005 -68.280815 108 101 85 
-17.529461 17.884789 -68.222771 108 101 85 
-17.384733 17.857786 -68.119766 108 102 84 
-17.232332 17.822481 -67.985092 107 102 82 
-17.071972 17.778397 -67.816933 107 103 80 
-16.912767 17.734917 -67.651070 107 102 79 
-16.756983 17.694435 -67.496658 108 102 79 
-16.615301 17.668385 -67.397278 108 103 78 
-16.447351 17.613829 -67.189178 109 102 77 
-16.297146 17.577637 -67.051117 109 102 77 
-16.157219 17.552088 -66.953659 109 102 77 
-16.010994 17.519276 -66.828499 109 103 78 
-15.861593 17.482487 -66.688156 111 103 79 
-15.701155 17.432899 -66.499008 112 103 77 
-26.174427 16.923120 -64.984787 106 97 69 
-26.135075 16.970829 -65.167984 105 98 68 
-26.093838 17.017721 -65.348045 103 98 67 
-26.062218 17.071321 -65.553879 101 98 67 
-26.027258 17.123196 -65.753075 101 98 68 
-25.977827 17.165966 -65.917305 101 98 70 
-25.929771 17.210026 -66.086502 103 98 72 
-25.876797 17.251198 -66.244598 103 97 73 
-25.834475 17.299871 -66.431503 102 96 74 
-25.791500 17.348543 -66.618408 102 96 75 
-25.727020 17.383121 -66.751190 102 96 74 
-25.665604 17.420094 -66.893158 102 95 73 
-25.601730 17.455725 -67.029984 102 95 72 
-25.547689 17.498417 -67.193924 101 93 70 
-25.478075 17.530785 -67.318214 101 93 70 
-25.413021 17.566605 -67.455757 102 92 69 
-25.337492 17.595480 -67.566643 102 92 69 
-25.275328 17.633949 -67.714363 100 92 70 
-25.203430 17.665956 -67.837273 100 92 71 
-25.120731 17.690657 -67.932121 99 91 70 
-25.027008 17.707788 -67.997910 99 91 70 
-24.933664 17.725353 -68.065353 99 91 71 
-24.837038 17.740742 -68.124451 99 90 71 
-24.746321 17.760517 -68.200386 98 90 71 
-24.671322 17.791819 -68.320580 98 89 70 
-24.589399 17.818405 -68.422676 96 88 68 
-24.517242 17.852360 -68.553062 95 88 66 
-24.427099 17.873487 -68.634193 96 89 66 
-24.331306 17.890667 -68.700157 97 90 67 
-24.245054 17.915064 -68.793846 98 90 67 
-24.150640 17.933645 -68.865196 97 90 66 
-24.065899 17.959625 -68.964966 97 90 64 
-23.984358 17.988268 -69.074951 98 91 62 
-23.890760 18.008110 -69.151146 98 92 61 
-23.784351 18.018448 -69.190842 98 91 60 
-23.690548 18.038488 -69.267792 99 90 61 
-23.591999 18.055101 -69.331589 99 92 65 
-23.482996 18.063843 -69.365158 99 93 68 
-23.380905 18.078020 -69.419594 98 93 70 
-23.273109 18.087910 -69.457573 98 93 71 
-23.171230 18.102524 -69.513687 99 93 70 
-23.075029 18.121752 -69.587524 100 93 70 
-22.959978 18.126297 -69.604980 100 92 68 
-22.849115 18.134218 -69.635399 99 92 67 
-22.748701 18.150560 -69.698151 99 92 67 
-22.641443 18.161587 -69.740494 99 92 67 
-22.522511 18.163315 -69.747124 100 92 67 
-22.406277 18.167252 -69.762245 100 93 67 
-22.291309 18.172262 -69.781487 101 94 67 
-22.164909 18.167959 -69.764961 102 95 68 
-22.038027 18.163210 -69.746727 103 96 68 
-21.916668 18.162985 -69.745865 102 96 68 
-21.805838 18.171532 -69.778679 101 95 67 
-21.696867 18.181732 -69.817848 102 96 68 
-21.586035 18.190479 -69.851440 103 96 68 
-21.469414 18.194418 -69.866570 102 95 66 
-21.333765 18.182186 -69.819595 103 93 65 
-21.191828 18.164423 -69.751389 104 93 66 
-21.070919 18.164585 -69.752007 106 94 68 
-20.941202 18.157112 -69.723312 107 95 69 
-20.821867 18.158604 -69.729042 106 95 71 
-20.693840 18.152491 -69.705566 106 95 72 
-20.567511 18.147804 -69.687569 106 96 72 
-20.443474 18.145094 -69.677162 106 96 73 
-20.305027 18.129488 -69.617233 106 97 74 
-20.166536 18.113655 -69.556442 106 98 76 
-20.030422 18.099779 -69.503159 107 98 78 
-19.897272 18.088428 -69.459572 106 98 78 
-19.759165 18.072407 -69.398041 105 98 76 
-19.611502 18.047394 -69.301994 105 98 75 
-19.478140 18.035315 -69.255608 106 99 75 
-19.353041 18.030783 -69.238205 107 100 75 
-19.212807 18.012005 -69.166100 107 100 75 
-19.068789 17.989424 -69.079384 107 100 74 
-18.935900 17.977119 -69.032135 108 100 73 
-18.799171 17.960993 -68.970207 109 99 73 
-18.647152 17.929955 -68.851021 108 99 73 
-18.514320 17.917084 -68.801605 107 100 73 
-18.387039 17.909454 -68.772308 107 101 75 
-18.245310 17.887560 -68.688225 108 102 78 
-18.098646 17.860506 -68.584343 108 101 80 
-17.948812 17.829945 -68.466988 108 100 82 
-17.812174 17.812174 -68.398750 108 100 83 
-17.668625 17.787207 -68.302872 108 101 83 
-17.533382 17.770321 -68.238029 109 101 84 
-17.387960 17.742817 -68.132416 108 102 83 
-17.235798 17.708012 -67.998764 108 102 81 
-17.076015 17.664843 -67.832993 108 102 80 
-16.916901 17.621771 -67.667603 108 102 79 
-16.761610 17.582109 -67.515297 109 102 79 
-16.620213 17.556562 -67.417198 109 103 79 
-16.454708 17.505009 -67.219231 109 102 79 
-16.308537 17.473433 -67.097977 110 101 80 
-16.166780 17.446167 -66.993279 110 102 80 
-16.019547 17.412550 -66.864197 110 102 81 
-15.866632 17.372225 -66.709343 111 103 81 
-15.709723 17.326900 -66.535301 112 104 80 
-26.163820 16.803488 -64.958450 107 97 68 
-26.125534 16.851534 -65.144188 106 97 68 
-26.085487 16.898859 -65.327133 103 97 68 
-26.051510 16.950546 -65.526939 102 97 69 
-26.021235 17.005106 -65.737854 101 97 69 
-25.971472 17.047354 -65.901184 102 97 71 
-25.924505 17.091820 -66.073074 103 97 71 
-25.869818 17.131567 -66.226730 103 96 71 
-25.822731 17.176727 -66.401306 102 96 70 
-25.767735 17.217007 -66.557014 100 95 69 
-25.711483 17.256805 -66.710876 100 95 69 
-25.653187 17.295588 -66.860794 101 94 68 
-25.592636 17.333195 -67.006172 101 94 68 
-25.541550 17.377584 -67.177773 100 93 67 
-25.472881 17.410364 -67.304497 100 93 67 
-25.407711 17.445848 -67.441666 101 92 66 
-25.332005 17.474392 -67.552010 101 91 66 
-25.271154 17.513498 -67.703186 100 92 67 
-25.199488 17.545437 -67.826660 99 92 68 
-25.116982 17.570095 -67.921982 98 91 67 
-25.023199 17.587059 -67.987556 98 90 67 
-24.929203 17.604034 -68.053177 98 90 68 
-24.831787 17.618744 -68.110046 98 90 68 
-24.741045 17.638351 -68.185844 98 90 68 
-24.668398 17.671112 -68.312485 98 90 68 
-24.586651 17.697638 -68.415031 97 89 67 
-24.514347 17.731251 -68.544975 97 88 66 
-24.425095 17.752874 -68.628563 97 88 66 
-24.329895 17.770365 -68.696175 97 89 67 
-24.244488 17.795216 -68.792244 98 90 68 
-24.149567 17.813295 -68.862129 99 90 67 
-24.065399 17.839525 -68.963531 98 90 64 
-23.984314 17.868315 -69.074829 98 91 62 
-23.891417 17.888548 -69.153046 100 92 62 
-23.785744 17.899372 -69.194893 100 91 63 
-23.691311 17.918810 -69.270027 99 91 65 
-23.592678 17.935251 -69.333588 99 92 68 
-23.483437 17.943754 -69.366455 98 93 71 
-23.381628 17.958055 -69.421745 98 93 73 
-23.275291 17.969007 -69.464081 97 93 74 
-23.176973 17.986298 -69.530922 97 92 74 
-23.080767 18.005415 -69.604820 98 92 74 
-22.970818 18.013958 -69.637848 101 93 74 
-22.855572 18.018414 -69.655075 101 92 72 
-22.752113 18.032259 -69.708603 100 91 71 
-22.644524 18.042963 -69.749977 100 91 71 
-22.525080 18.044285 -69.755089 100 92 70 
-22.408812 18.048178 -69.770134 101 93 69 
-22.293129 18.052589 -69.787186 102 94 68 
-22.165937 18.047676 -69.768196 102 95 68 
-22.040300 18.043982 -69.753914 102 95 67 
-21.923536 18.047552 -69.767723 101 94 65 
-21.811174 18.054806 -69.795761 101 95 64 
-21.700481 18.063530 -69.829483 102 96 66 
-21.588139 18.070969 -69.858246 103 97 68 
-21.474375 18.077299 -69.882713 103 96 69 
-21.340372 18.066565 -69.841217 103 93 69 
-21.201340 18.051426 -69.782700 104 93 70 
-21.079519 18.050854 -69.780479 105 93 71 
-20.954216 18.047274 -69.766640 106 94 73 
-20.832193 18.046494 -69.763626 106 95 75 
-20.698503 18.035538 -69.721275 106 95 74 
-20.570414 18.029364 -69.697403 106 96 73 
-20.446384 18.026693 -69.687088 106 96 74 
-20.308220 18.011457 -69.628181 105 97 74 
-20.169819 17.995827 -69.567757 106 98 75 
-20.034012 17.982336 -69.515610 107 99 77 
-19.900927 17.971140 -69.472328 107 99 78 
-19.765436 17.957621 -69.420067 106 99 78 
-19.619699 17.934570 -69.330963 105 99 78 
-19.483244 17.919773 -69.273750 106 99 77 
-19.356667 17.913933 -69.251183 107 100 76 
-19.215525 17.894457 -69.175888 107 100 75 
-19.071674 17.872198 -69.089836 107 100 74 
-18.938416 17.859646 -69.041313 108 100 73 
-18.803196 17.845070 -68.984970 109 100 72 
-18.652548 17.815573 -68.870941 109 100 72 
-18.517727 17.800913 -68.814262 107 99 73 
-18.389956 17.792879 -68.783211 108 101 75 
-18.249500 17.772390 -68.704002 109 101 79 
-18.102530 17.745241 -68.599060 108 100 81 
-17.953047 17.715258 -68.483147 108 99 83 
-17.816082 17.697309 -68.413757 108 99 83 
-17.672268 17.672268 -68.316956 108 100 83 
-17.536549 17.655039 -68.250351 109 101 83 
-17.392088 17.628716 -68.148590 109 101 82 
-17.239090 17.593317 -68.011749 109 101 81 
-17.079243 17.550394 -67.845818 109 102 80 
-16.920784 17.508310 -67.683136 109 102 79 
-16.764519 17.467926 -67.527016 109 102 79 
-16.624790 17.444323 -67.435768 110 102 79 
-16.462217 17.396244 -67.249908 111 101 79 
-16.313467 17.362190 -67.118271 111 101 81 
-16.174484 17.338116 -67.025200 112 102 82 
-16.026812 17.304312 -66.894516 111 102 84 
-15.871176 17.261351 -66.728447 111 103 83 
-15.715085 17.217262 -66.558006 112 103 82 
-26.154701 16.684895 -64.935806 107 97 67 
-26.117331 16.733181 -65.123734 106 97 67 
-26.076715 16.779799 -65.305168 104 97 69 
-26.045170 16.832685 -65.510994 102 97 70 
-26.012411 16.885248 -65.715561 102 97 71 
-25.968035 16.930702 -65.892464 102 97 71 
-25.919683 16.973953 -66.060791 103 96 71 
-25.863646 17.012531 -66.210930 102 95 70 
-25.812948 17.054983 -66.376152 101 95 67 
-25.759712 17.096132 -66.536301 99 94 66 
-25.704031 17.136021 -66.691536 99 94 66 
-25.648357 17.176275 -66.848206 100 93 66 
-25.587639 17.213503 -66.993095 100 93 66 
-25.537680 17.258341 -67.167595 101 94 68 
-25.471252 17.292410 -67.300194 100 93 67 
-25.404367 17.326481 -67.432785 100 91 67 
-25.329142 17.355152 -67.544373 100 90 66 
-25.267693 17.393574 -67.693909 99 92 65 
-25.195280 17.424774 -67.815331 99 92 65 
-25.112879 17.449324 -67.910881 98 91 64 
-25.019188 17.466225 -67.976662 98 90 64 
-24.923933 17.482191 -68.038795 99 91 65 
-24.827276 17.497318 -68.097672 99 91 66 
-24.737469 17.517443 -68.175995 99 91 67 
-24.665718 17.550608 -68.305069 99 91 67 
-24.581942 17.575495 -68.401924 99 91 67 
-24.509655 17.608879 -68.531853 99 89 68 
-24.422092 17.631559 -68.620125 98 88 68 
-24.327106 17.649076 -68.688301 98 88 69 
-24.242392 17.674255 -68.786293 100 89 71 
-24.144978 17.690380 -68.849045 101 90 72 
-24.058716 17.714874 -68.944374 101 90 70 
-23.982420 17.746990 -69.069366 100 91 68 
-23.892635 17.769398 -69.156578 101 91 67 
-23.787230 17.780354 -69.199211 100 91 68 
-23.691433 17.798641 -69.270386 100 92 70 
-23.592909 17.815054 -69.334259 99 93 72 
-23.483145 17.823105 -69.365593 98 93 74 
-23.381636 17.837538 -69.421768 97 93 74 
-23.275890 17.848869 -69.465874 96 93 74 
-23.178251 17.866570 -69.534752 96 92 73 
-23.082094 17.885601 -69.608826 98 93 73 
-22.971907 17.893906 -69.641151 101 94 74 
-22.856895 17.898521 -69.659103 103 93 72 
-22.753071 17.911991 -69.711540 102 91 71 
-22.645479 17.922625 -69.752914 102 91 70 
-22.527168 17.924845 -69.761559 103 93 70 
-22.410702 17.928560 -69.776024 103 93 69 
-22.294621 17.932631 -69.791855 103 93 68 
-22.168123 17.928318 -69.775078 103 93 67 
-22.043558 17.925531 -69.764229 102 92 66 
-21.925505 17.928038 -69.773979 101 93 65 
-21.813650 17.935669 -69.803680 101 94 65 
-21.703024 17.944399 -69.837662 102 95 67 
-21.591457 17.952448 -69.868980 104 96 70 
-21.479340 17.960127 -69.898872 105 96 72 
-21.347710 17.951483 -69.865234 104 95 73 
-21.207474 17.935463 -69.802879 103 93 73 
-21.087431 17.936436 -69.806664 104 94 74 
-20.965706 17.935980 -69.804893 105 94 77 
-20.841717 17.933571 -69.795517 106 95 79 
-20.705305 17.920382 -69.744186 106 96 77 
-20.573065 17.910669 -69.706390 106 96 74 
-20.449051 17.908045 -69.696175 106 96 73 
-20.314735 17.896315 -69.650520 105 97 71 
-20.180281 17.884321 -69.603844 105 98 71 
-20.040161 17.867132 -69.536949 107 99 74 
-19.907598 17.856512 -69.495613 107 100 75 
-19.769230 17.840525 -69.433395 106 100 77 
-19.622807 17.817028 -69.341942 105 100 78 
-19.487370 17.803276 -69.288422 105 100 78 
-19.362108 17.798708 -69.270645 105 100 77 
-19.219915 17.778421 -69.191696 106 100 76 
-19.075626 17.755928 -69.104156 107 100 75 
-18.944012 17.745024 -69.061714 107 100 75 
-18.809582 17.731327 -69.008408 107 100 74 
-18.660084 17.703156 -68.898773 107 100 74 
-18.524511 17.687920 -68.839470 107 99 76 
-18.396639 17.679886 -68.808205 107 100 78 
-18.254810 17.658249 -68.723991 108 100 81 
-18.107229 17.630724 -68.616875 108 100 83 
-17.956499 17.599749 -68.496315 108 99 84 
-17.819838 17.582239 -68.428177 108 99 84 
-17.676369 17.557735 -68.332809 109 100 84 
-17.540119 17.540119 -68.264244 109 100 84 
-17.394049 17.512377 -68.156273 109 101 82 
-17.240833 17.477009 -68.018631 109 101 81 
-17.082777 17.436214 -67.859863 110 101 80 
-16.925026 17.395166 -67.700104 110 101 79 
-16.771059 17.357460 -67.553360 111 101 79 
-16.628962 17.331594 -67.452690 111 101 79 
-16.465029 17.282440 -67.261391 111 101 79 
-16.317287 17.249702 -67.133980 112 101 81 
-16.177866 17.225355 -67.039215 112 102 83 
-16.030094 17.191696 -66.908218 111 103 85 
-15.875683 17.150373 -66.747398 112 103 85 
-15.718041 17.104927 -66.570534 112 103 83 
-26.148520 16.568243 -64.920464 107 97 67 
-26.107557 16.613899 -65.099365 106 98 66 
-26.062971 16.657639 -65.270744 105 98 67 
-26.034235 16.711933 -65.483490 104 97 69 
-25.999830 16.763048 -65.683784 104 96 69 
-25.956238 16.808666 -65.862526 104 96 69 
-25.910765 16.853462 -66.038055 104 95 69 
-25.855742 16.892418 -66.190697 104 95 69 
-25.808681 16.936947 -66.365181 102 95 67 
-25.753735 16.976677 -66.520859 101 94 67 
-25.700087 17.017624 -66.681305 100 94 67 
-25.644730 17.057806 -66.838753 99 93 67 
-25.580294 17.092287 -66.973862 100 94 69 
-25.526476 17.134211 -67.138130 101 95 72 
-25.456417 17.165565 -67.260994 101 94 72 
-25.390203 17.199816 -67.395195 100 91 72 
-25.319386 17.231249 -67.518364 99 90 70 
-25.263578 17.273237 -67.682892 99 91 67 
-25.193790 17.306015 -67.811325 99 92 65 
-25.110676 17.329905 -67.904930 99 91 64 
-25.016617 17.346428 -67.969681 98 91 65 
-24.920565 17.361721 -68.029602 98 92 66 
-24.823288 17.376301 -68.086731 98 92 67 
-24.734360 17.396894 -68.167419 99 92 67 
-24.663359 17.430355 -68.298531 99 92 67 
-24.578905 17.454584 -68.393478 99 92 68 
-24.505720 17.487091 -68.520851 99 90 70 
-24.418325 17.509726 -68.609535 99 89 70 
-24.323830 17.527466 -68.679047 99 89 71 
-24.239819 17.552973 -68.778992 99 90 74 
-24.142296 17.568897 -68.841393 100 90 75 
-24.049986 17.588795 -68.919357 102 92 76 
-23.970734 17.618488 -69.035713 103 93 76 
-23.891870 17.648767 -69.154358 102 93 75 
-23.787346 17.660303 -69.199554 101 92 74 
-23.690546 17.677717 -69.267784 100 92 74 
-23.592115 17.694086 -69.331932 99 93 76 
-23.482374 17.702097 -69.363319 98 94 76 
-23.381317 17.716770 -69.420815 97 93 75 
-23.276220 17.728519 -69.466858 96 92 73 
-23.180025 17.747208 -69.540077 98 93 71 
-23.084261 17.766422 -69.615364 99 94 70 
-22.975952 17.776131 -69.653412 101 95 69 
-22.859291 17.779449 -69.666412 103 94 67 
-22.754744 17.792273 -69.716660 101 92 66 
-22.646875 17.802624 -69.757217 101 91 65 
-22.528475 17.804762 -69.765602 102 93 67 
-22.412239 17.808643 -69.780807 103 94 67 
-22.295561 17.812214 -69.794800 103 93 67 
-22.169296 17.808125 -69.778770 102 92 66 
-22.044561 17.805223 -69.767403 101 92 66 
-21.928375 17.809233 -69.783119 102 92 67 
-21.821020 17.820499 -69.827263 103 93 69 
-21.706316 17.825857 -69.848259 103 94 69 
-21.593575 17.832897 -69.875839 105 95 71 
-21.481115 17.840248 -69.904648 106 96 73 
-21.349190 17.831425 -69.870071 104 95 74 
-21.209740 17.816181 -69.810349 102 93 73 
-21.090265 17.817638 -69.816048 103 94 74 
-20.969275 17.817823 -69.816780 104 95 77 
-20.846394 17.816395 -69.811180 107 96 81 
-20.711466 17.804594 -69.764938 107 96 80 
-20.576630 17.792734 -69.718468 106 96 76 
-20.451468 17.789146 -69.704407 106 96 72 
-20.321096 17.780960 -69.672333 104 97 68 
-20.186371 17.768843 -69.624847 105 98 68 
-20.046541 17.752058 -69.559082 106 100 71 
-19.911432 17.739277 -69.509003 107 100 73 
-19.775854 17.725918 -69.456657 106 100 74 
-19.629126 17.702341 -69.364273 105 100 75 
-19.493982 17.688984 -69.311935 104 100 75 
-19.367554 17.683420 -69.290131 104 99 75 
-19.224520 17.662529 -69.208275 105 99 75 
-19.079924 17.639931 -69.119728 106 100 76 
-18.951374 17.631973 -69.088547 106 100 78 
-18.818758 17.620110 -69.042068 107 100 78 
-18.671461 17.594261 -68.940781 107 99 78 
-18.530972 17.574535 -68.863480 107 100 79 
-18.402287 17.565819 -68.829330 108 100 81 
-18.258934 17.542898 -68.739517 108 100 83 
-18.111620 17.515842 -68.633507 108 100 85 
-17.962242 17.486422 -68.518227 109 100 86 
-17.824539 17.468048 -68.446228 109 100 85 
-17.679600 17.442289 -68.345299 109 100 85 
-17.543385 17.424847 -68.276955 108 100 83 
-17.396742 17.396742 -68.166832 109 100 82 
-17.243582 17.361689 -68.029480 110 100 81 
-17.084579 17.320229 -67.867020 110 101 80 
-16.928267 17.280939 -67.713066 111 101 79 
-16.773474 17.242662 -67.563080 111 101 79 
-16.632656 17.218311 -67.467674 112 101 80 
-16.469391 17.170216 -67.279213 112 101 80 
-16.321247 17.137310 -67.150276 113 100 81 
-16.181868 17.113199 -67.055801 113 101 82 
-16.032965 17.078592 -66.920204 112 103 84 
-15.879219 17.038286 -66.762260 112 103 83 
-15.721083 16.992641 -66.583412 111 103 82 
-26.137722 16.448738 -64.893654 106 97 68 
-26.096466 16.493870 -65.071709 107 97 67 
-26.049170 16.535559 -65.236183 107 97 66 
-26.020103 16.589237 -65.447945 106 97 67 
-25.985353 16.639744 -65.647209 105 95 66 
-25.937782 16.682451 -65.815697 106 94 66 
-25.897499 16.730244 -66.004250 106 93 67 
-25.845259 16.770700 -66.163857 106 94 67 
-25.797871 16.814684 -66.337379 105 94 68 
-25.742777 16.854015 -66.492554 103 95 70 
-25.694647 16.898281 -66.667191 101 94 69 
-25.637516 16.937000 -66.819946 99 94 70 
-25.572844 16.971069 -66.954353 100 95 72 
-25.518429 17.012285 -67.116966 101 96 75 
-25.449907 17.044434 -67.243790 101 94 75 
-25.382284 17.077482 -67.374176 101 92 75 
-25.306280 17.105171 -67.483414 101 91 74 
-25.256250 17.150757 -67.663261 100 90 70 
-25.185909 17.182909 -67.790108 100 90 68 
-25.101101 17.205450 -67.879036 100 90 68 
-25.006062 17.221155 -67.940994 100 91 69 
-24.912981 17.238365 -68.008896 99 91 69 
-24.815010 17.252340 -68.064026 99 92 70 
-24.721151 17.269321 -68.131020 100 93 71 
-24.654179 17.305338 -68.273109 99 92 71 
-24.571894 17.330900 -68.373962 98 92 71 
-24.501974 17.365477 -68.510376 98 91 71 
-24.412806 17.386683 -68.594032 98 91 72 
-24.319902 17.405420 -68.667961 98 91 72 
-24.236866 17.431440 -68.770615 97 92 74 
-24.138870 17.446905 -68.831627 98 92 74 
-24.046515 17.466621 -68.909416 99 93 76 
-23.968410 17.496939 -69.029022 100 94 77 
-23.891027 17.528091 -69.151917 100 94 77 
-23.786533 17.539566 -69.197189 101 93 77 
-23.688034 17.555599 -69.260445 101 94 78 
-23.590368 17.572418 -69.326797 101 94 79 
-23.480019 17.579912 -69.356361 101 94 78 
-23.379826 17.595127 -69.416389 100 93 75 
-23.275921 17.607691 -69.465958 100 92 72 
-23.181238 17.627399 -69.543716 101 93 69 
-23.085350 17.646393 -69.618645 101 94 68 
-22.977560 17.656441 -69.658287 102 94 65 
-22.859552 17.658701 -69.667206 102 94 63 
-22.754492 17.671041 -69.715889 101 92 62 
-22.646711 17.681389 -69.756714 100 91 63 
-22.528852 17.683937 -69.766769 101 92 64 
-22.412870 17.687996 -69.782776 103 93 66 
-22.295925 17.691332 -69.795937 103 93 67 
-22.169899 17.687460 -69.780663 103 93 67 
-22.046246 17.685450 -69.772736 103 93 69 
-21.932467 17.691383 -69.796143 104 94 70 
-21.823044 17.700912 -69.833740 103 93 71 
-21.708714 17.706549 -69.855972 103 93 71 
-21.595583 17.713232 -69.882339 105 93 72 
-21.482691 17.720186 -69.909775 107 95 74 
-21.351210 17.711800 -69.876686 106 94 73 
-21.212255 17.697083 -69.818626 103 92 72 
-21.094301 17.699816 -69.829407 103 92 73 
-20.972429 17.699276 -69.827278 105 95 76 
-20.849131 17.697517 -69.820343 107 97 80 
-20.715189 17.686653 -69.777481 107 98 81 
-20.579088 17.673805 -69.726799 106 97 77 
-20.455320 17.671459 -69.717537 105 97 74 
-20.326603 17.664785 -69.691208 104 97 71 
-20.195156 17.655645 -69.655144 104 98 72 
-20.051714 17.635845 -69.577034 106 100 74 
-19.915329 17.622049 -69.522606 106 100 75 
-19.779987 17.609015 -69.471176 106 100 76 
-19.633371 17.585720 -69.379280 107 99 75 
-19.498497 17.572720 -69.327988 106 99 74 
-19.372168 17.567308 -69.306641 106 98 75 
-19.228262 17.545790 -69.221741 106 99 76 
-19.083893 17.523575 -69.134102 106 99 77 
-18.955204 17.515568 -69.102516 107 101 79 
-18.822908 17.504105 -69.057289 107 101 80 
-18.676369 17.479166 -68.958900 107 100 80 
-18.534628 17.458424 -68.877068 105 100 79 
-18.408766 17.452467 -68.853569 105 101 79 
-18.264629 17.428993 -68.760963 106 101 81 
-18.117302 17.402145 -68.655037 106 100 83 
-17.970709 17.375652 -68.550522 107 100 83 
-17.829920 17.354454 -68.466888 108 100 83 
-17.684031 17.327976 -68.362427 109 100 83 
-17.547953 17.310818 -68.294731 109 99 81 
-17.399227 17.280865 -68.176559 109 100 81 
-17.246052 17.246052 -68.039215 109 101 81 
-17.086992 17.204832 -67.876602 109 101 80 
-16.932199 17.167370 -67.728798 110 102 80 
-16.779245 17.131258 -67.586334 110 102 81 
-16.636379 17.105009 -67.482780 111 102 81 
-16.472654 17.056789 -67.292542 111 101 80 
-16.325624 17.025295 -67.168289 111 100 81 
-16.186125 17.001253 -67.073433 111 101 81 
-16.038021 16.967760 -66.941299 111 103 81 
-15.882558 16.925938 -66.776306 111 103 81 
-15.724401 16.880608 -66.597466 111 103 80 
-26.116621 16.322887 -64.841263 107 97 71 
-26.083256 16.372606 -65.038765 107 98 69 
-26.037956 16.415234 -65.208099 107 97 68 
-26.012346 16.470699 -65.428436 107 96 67 
-25.979744 16.522205 -65.633041 106 95 66 
-25.931673 16.564285 -65.800194 105 93 66 
-25.888889 16.610128 -65.982307 105 92 65 
-25.839874 16.652363 -66.150078 106 93 66 
-25.793015 16.696371 -66.324898 106 94 69 
-25.736790 16.734684 -66.477089 105 95 71 
-25.687164 16.777653 -66.647781 103 95 71 
-25.630548 16.816423 -66.801788 101 95 72 
-25.568403 16.851902 -66.942726 101 96 73 
-25.514074 16.892879 -67.105507 101 95 74 
-25.447723 16.926237 -67.238022 101 94 75 
-25.377605 16.957386 -67.361755 102 93 74 
-25.302164 16.985249 -67.472435 102 92 74 
-25.245951 17.026339 -67.635666 103 91 72 
-25.176403 17.058777 -67.764526 103 91 70 
-25.089666 17.079821 -67.848114 103 90 71 
-24.997055 17.097042 -67.916527 102 91 72 
-24.899960 17.111347 -67.973351 102 91 72 
-24.800104 17.123880 -68.023140 102 92 73 
-24.704924 17.139780 -68.086296 103 92 74 
-24.637693 17.175316 -68.227463 102 92 75 
-24.562019 17.205280 -68.346489 100 92 74 
-24.493761 17.240753 -68.487411 97 92 74 
-24.406315 17.263002 -68.575790 97 93 74 
-24.314503 17.282366 -68.652710 98 93 74 
-24.233591 17.309708 -68.761322 98 93 76 
-24.135681 17.325117 -68.822540 98 93 76 
-24.044621 17.345623 -68.903992 98 93 76 
-23.966082 17.375410 -69.022316 98 93 76 
-23.889538 17.406948 -69.147606 98 93 75 
-23.785477 17.418657 -69.194115 100 93 75 
-23.684278 17.432590 -69.249466 103 93 74 
-23.586292 17.449041 -69.314819 103 92 75 
-23.475340 17.456022 -69.342545 103 93 74 
-23.376196 17.471899 -69.405609 103 93 72 
-23.274290 17.485867 -69.461098 103 92 69 
-23.181391 17.506779 -69.544167 102 92 66 
-23.086157 17.526140 -69.621078 102 92 64 
-22.977703 17.535616 -69.658722 103 93 63 
-22.859186 17.537470 -69.666092 102 93 62 
-22.754034 17.549654 -69.714493 101 93 62 
-22.646164 17.559860 -69.755028 101 92 63 
-22.528587 17.562609 -69.765945 102 93 64 
-22.412968 17.566919 -69.783073 103 93 66 
-22.296104 17.570299 -69.796501 102 92 67 
-22.169952 17.566357 -69.780830 102 92 68 
-22.046335 17.564388 -69.773018 103 93 69 
-21.933483 17.571022 -69.799377 103 93 71 
-21.824024 17.580463 -69.836876 103 93 72 
-21.710016 17.586327 -69.860168 103 92 72 
-21.596178 17.592392 -69.884262 105 93 72 
-21.483727 17.599663 -69.913139 107 94 73 
-21.351749 17.590929 -69.878448 106 94 73 
-21.214046 17.577353 -69.824516 104 92 71 
-21.096798 17.580666 -69.837677 103 93 72 
-20.975975 17.581018 -69.839081 105 95 74 
-20.857445 17.583311 -69.848183 107 95 76 
-20.723589 17.572634 -69.805771 108 96 77 
-20.582096 17.555319 -69.736984 106 96 75 
-20.457617 17.552393 -69.725372 106 97 73 
-20.330366 17.547041 -69.704109 105 97 73 
-20.200348 17.539225 -69.673058 106 97 74 
-20.056173 17.518946 -69.592506 106 98 76 
-19.920507 17.505899 -69.540680 106 99 78 
-19.783426 17.491444 -69.483253 107 99 77 
-19.638607 17.469927 -69.397781 109 98 77 
-19.502588 17.456020 -69.342537 107 98 76 
-19.374771 17.449329 -69.315956 106 98 76 
-19.231205 17.428278 -69.232338 106 98 76 
-19.086998 17.406382 -69.145348 107 99 77 
-18.957884 17.398058 -69.112282 107 100 79 
-18.825693 17.386787 -69.067513 108 100 80 
-18.679163 17.362041 -68.969215 107 101 80 
-18.537672 17.341694 -68.888382 104 101 78 
-18.411478 17.335484 -68.863708 104 100 78 
-18.268982 17.313740 -68.777344 104 100 80 
-18.121603 17.287054 -68.671333 105 100 81 
-17.977058 17.262739 -68.574738 105 99 81 
-17.836927 17.242363 -68.493797 106 99 81 
-17.689068 17.214193 -68.381897 108 99 81 
-17.552008 17.196222 -68.310516 108 99 79 
-17.404514 17.167717 -68.197281 107 99 79 
-17.251915 17.133751 -68.062347 106 100 79 
-17.090321 17.090321 -67.889824 107 101 80 
-16.935429 17.053036 -67.741714 109 102 81 
-16.783268 17.018000 -67.602539 109 103 82 
-16.639402 16.990938 -67.495041 110 102 82 
-16.477577 16.945026 -67.312660 109 101 81 
-16.330034 16.913250 -67.186424 109 101 81 
-16.188921 16.887724 -67.085030 110 102 81 
-16.040318 16.853956 -66.950890 110 102 81 
-15.884360 16.811914 -66.783882 110 103 81 
-15.726708 16.767447 -66.607239 110 103 81 
-26.070049 16.181410 -64.725639 106 98 76 
-26.022310 16.221701 -64.886803 106 98 75 
-25.994717 16.274952 -65.099808 105 97 73 
-25.985071 16.339956 -65.359825 105 95 71 
-25.963123 16.397762 -65.591049 104 94 69 
-25.920050 16.442675 -65.770699 103 94 68 
-25.874350 16.486311 -65.945244 104 94 68 
-25.832302 16.532675 -66.130699 106 94 68 
-25.787884 16.577925 -66.311699 106 95 70 
-25.732096 16.616241 -66.464966 105 94 72 
-25.682781 16.659101 -66.636406 104 95 72 
-25.624237 16.696335 -66.785339 103 96 73 
-25.564697 16.733255 -66.933022 101 95 73 
-25.509283 16.773228 -67.092911 101 94 73 
-25.441780 16.805580 -67.222321 101 93 73 
-25.373028 16.837400 -67.349602 102 92 73 
-25.297607 16.865072 -67.460289 103 92 73 
-25.241440 16.905893 -67.623573 103 92 71 
-25.172192 16.938297 -67.753189 104 92 70 
-25.083855 16.958099 -67.832397 104 92 71 
-24.992756 16.976212 -67.904846 103 92 72 
-24.895214 16.990099 -67.960396 103 92 72 
-24.794691 17.002073 -68.008293 102 91 72 
-24.694294 17.014252 -68.057007 101 91 72 
-24.630892 17.052155 -68.208618 101 91 73 
-24.558054 17.083864 -68.335457 100 92 73 
-24.491245 17.120094 -68.480377 97 92 74 
-24.402918 17.141562 -68.566246 97 92 74 
-24.312443 17.161724 -68.646896 98 93 74 
-24.229507 17.187435 -68.749741 99 92 74 
-24.128569 17.200563 -68.802254 100 92 73 
-24.036676 17.220306 -68.881226 100 91 73 
-23.956806 17.248901 -68.995605 100 90 72 
-23.885254 17.283802 -69.135208 100 91 71 
-23.776302 17.291857 -69.167427 101 90 69 
-23.673693 17.304628 -69.218513 102 91 68 
-23.577366 17.322145 -69.288582 103 91 69 
-23.469524 17.331341 -69.325363 103 91 70 
-23.374023 17.349791 -69.399162 103 92 70 
-23.273750 17.364870 -69.459480 103 92 69 
-23.181026 17.385771 -69.543083 101 92 67 
-23.086010 17.405159 -69.620636 101 92 64 
-22.977280 17.414358 -69.657433 101 92 63 
-22.858732 17.416178 -69.664711 102 93 62 
-22.753242 17.428015 -69.712059 102 93 62 
-22.645107 17.437944 -69.751778 102 93 64 
-22.528210 17.441195 -69.764778 102 93 64 
-22.412832 17.445663 -69.782654 103 93 66 
-22.295910 17.448973 -69.795891 102 92 66 
-22.169619 17.444946 -69.779785 102 92 67 
-22.045994 17.442984 -69.771935 102 92 68 
-21.933872 17.450151 -69.800606 103 93 70 
-21.824656 17.459724 -69.838898 103 93 71 
-21.710798 17.465670 -69.862679 103 92 71 
-21.596968 17.471704 -69.886818 104 92 71 
-21.484814 17.479170 -69.916679 105 93 72 
-21.352432 17.470173 -69.880692 105 93 72 
-21.215456 17.457291 -69.829163 105 92 72 
-21.099779 17.461887 -69.847549 104 93 74 
-20.978081 17.461523 -69.846092 105 94 74 
-20.860729 17.464798 -69.859192 106 94 74 
-20.728018 17.455173 -69.820694 107 95 74 
-20.585808 17.437389 -69.749557 106 95 72 
-20.460659 17.433935 -69.735741 105 96 71 
-20.333118 17.428387 -69.713547 106 96 72 
-20.203789 17.421230 -69.684921 106 96 72 
-20.059265 17.400808 -69.603233 106 97 74 
-19.923664 17.387924 -69.551697 106 98 76 
-19.786507 17.373518 -69.494072 106 98 78 
-19.642914 17.353249 -69.412994 107 98 79 
-19.505608 17.338318 -69.353271 107 98 78 
-19.377125 17.331093 -69.324371 106 98 77 
-19.235163 17.311646 -69.246582 106 98 78 
-19.091173 17.290119 -69.160477 107 99 79 
-18.960306 17.280279 -69.121117 108 100 79 
-18.828207 17.269184 -69.076736 109 100 79 
-18.682159 17.245071 -68.980286 108 101 79 
-18.542030 17.226145 -68.904579 106 101 80 
-18.416809 17.220913 -68.883652 106 100 81 
-18.273783 17.198854 -68.795418 106 100 82 
-18.125673 17.171690 -68.686760 106 100 83 
-17.980240 17.146719 -68.586876 106 99 82 
-17.840460 17.126841 -68.507362 105 98 81 
-17.697077 17.103214 -68.412857 105 98 79 
-17.555901 17.081417 -68.325668 106 99 78 
-17.407185 17.051935 -68.207741 106 99 78 
-17.253738 17.017385 -68.069542 106 101 79 
-17.092760 16.974878 -67.899513 107 102 79 
-16.938499 16.938499 -67.753998 108 102 80 
-16.786644 16.904034 -67.616135 109 102 81 
-16.643398 16.877811 -67.511246 109 102 80 
-16.480436 16.831083 -67.324333 109 101 80 
-16.333000 16.799656 -67.198624 110 102 81 
-16.190413 16.772800 -67.091202 110 102 81 
-16.042086 16.739567 -66.958267 110 102 82 
-15.886247 16.697952 -66.791809 110 102 82 
-15.728709 16.653927 -66.615707 110 102 82 
-26.059998 16.062843 -64.700684 107 98 77 
-26.014481 16.104202 -64.867271 106 98 76 
-25.983589 16.155014 -65.071945 105 97 75 
-25.970388 16.217318 -65.322899 103 96 73 
-25.946012 16.273157 -65.547821 102 95 72 
-25.898417 16.314861 -65.715805 103 96 72 
-25.856909 16.360786 -65.900795 104 95 72 
-25.814722 16.406691 -66.085686 105 95 72 
-25.777662 16.456274 -66.285416 106 95 73 
-25.727762 16.498072 -66.453773 105 94 73 
-25.680069 16.541666 -66.629372 104 95 72 
-25.619638 16.577414 -66.773361 103 95 72 
-25.557901 16.612637 -66.915237 101 94 71 
-25.501347 16.651564 -67.072037 100 93 71 
-25.436424 16.685362 -67.208168 100 92 72 
-25.368013 16.717171 -67.336296 101 92 72 
-25.292616 16.744648 -67.446976 102 92 72 
-25.233974 16.783527 -67.603577 102 93 69 
-25.163479 16.814848 -67.729736 102 93 68 
-25.072777 16.832897 -67.802437 102 92 68 
-24.976522 16.847370 -67.860741 101 92 68 
-24.879007 16.861128 -67.916153 100 92 69 
-24.776220 16.871426 -67.957634 99 91 69 
-24.683344 16.888605 -68.026825 99 91 70 
-24.618895 16.925489 -68.175400 99 91 70 
-24.548380 16.958544 -68.308533 98 91 71 
-24.485016 16.996880 -68.462952 97 92 72 
-24.393948 17.016266 -68.541046 97 91 71 
-24.302662 17.035690 -68.619278 98 91 71 
-24.223230 17.063654 -68.731926 99 91 71 
-24.122015 17.076477 -68.783569 100 91 70 
-24.027012 17.093845 -68.853531 101 90 69 
-23.951042 17.124994 -68.978996 102 89 69 
-23.880449 17.160322 -69.121300 102 90 67 
-23.770006 17.167227 -69.149109 102 90 64 
-23.665382 17.178425 -69.194214 101 90 63 
-23.568775 17.195585 -69.263336 101 91 64 
-23.463026 17.206219 -69.306168 100 91 67 
-23.372112 17.227898 -69.393494 102 92 71 
-23.269779 17.241339 -69.447632 102 93 73 
-23.177921 17.262722 -69.533760 102 93 72 
-23.082817 17.281900 -69.611008 101 93 70 
-22.975527 17.292109 -69.652122 101 92 67 
-22.857283 17.294134 -69.660286 102 93 64 
-22.752180 17.306179 -69.708809 102 93 63 
-22.643698 17.315769 -69.747429 103 94 65 
-22.526733 17.318941 -69.760208 103 94 66 
-22.412359 17.324148 -69.781181 103 93 67 
-22.295435 17.327431 -69.794403 102 92 67 
-22.168879 17.323223 -69.777458 101 92 68 
-22.045321 17.321323 -69.769806 101 92 69 
-21.933992 17.329067 -69.800995 102 92 69 
-21.825209 17.338915 -69.840668 103 93 69 
-21.711679 17.345085 -69.865517 103 93 69 
-21.597340 17.350672 -69.888023 104 92 70 
-21.485306 17.358185 -69.918282 104 92 72 
-21.352829 17.349173 -69.881981 104 92 73 
-21.217690 17.337883 -69.836510 105 93 75 
-21.103832 17.343954 -69.860962 105 94 77 
-20.982319 17.343767 -69.860207 105 94 77 
-20.864439 17.346598 -69.871613 104 95 76 
-20.731512 17.336878 -69.832458 104 95 74 
-20.591465 17.321056 -69.768730 102 94 70 
-20.464022 17.315710 -69.747200 103 95 69 
-20.337288 17.310905 -69.727844 104 97 70 
-20.208038 17.303888 -69.699585 104 97 70 
-20.065418 17.285271 -69.624588 103 97 71 
-19.932581 17.274904 -69.582825 103 97 72 
-19.788998 17.255039 -69.502823 105 98 77 
-19.646238 17.235657 -69.424744 105 99 80 
-19.509359 17.221224 -69.366608 105 98 80 
-19.380671 17.213888 -69.337059 105 98 79 
-19.236795 17.192886 -69.252464 106 98 78 
-19.094219 17.172789 -69.171509 107 98 78 
-18.964300 17.163893 -69.135674 107 98 78 
-18.831417 17.152182 -69.088509 109 99 77 
-18.685316 17.128206 -68.991936 109 100 78 
-18.545500 17.109720 -68.917473 108 100 81 
-18.418917 17.103279 -68.891533 107 100 82 
-18.276381 17.081844 -68.805199 107 100 83 
-18.128452 17.055056 -68.697289 107 100 84 
-17.984447 17.031630 -68.602928 106 100 84 
-17.842403 17.009758 -68.514824 105 98 81 
-17.699686 16.986948 -68.422951 104 98 79 
-17.558241 16.965057 -68.334778 105 99 78 
-17.409763 16.936029 -68.217850 106 100 77 
-17.255838 16.901266 -68.077827 107 101 78 
-17.094753 16.858963 -67.907433 108 102 79 
-16.941463 16.823814 -67.765854 107 102 79 
-16.794941 16.794941 -67.649551 107 101 78 
-16.648651 16.765896 -67.532555 108 100 78 
-16.483173 16.716976 -67.335518 109 101 79 
-16.336975 16.687052 -67.214981 109 102 79 
-16.192928 16.658913 -67.101631 109 102 80 
-16.043213 16.624489 -66.962975 110 102 82 
-15.887701 16.583513 -66.797928 110 102 83 
-15.730206 16.539848 -66.622047 110 102 83 
-26.038742 15.937506 -64.647911 108 97 74 
-26.001692 15.983725 -64.835388 107 98 74 
-25.976114 16.037428 -65.053223 105 97 74 
-25.961306 16.098276 -65.300049 104 97 74 
-25.932882 16.151182 -65.514656 103 97 74 
-25.888399 16.194506 -65.690392 104 97 74 
-25.847589 16.240520 -65.877045 105 96 74 
-25.806551 16.286800 -66.064766 106 95 74 
-25.772060 16.337646 -66.271011 105 94 73 
-25.722467 16.379328 -66.440094 104 94 72 
-25.672548 16.421179 -66.609856 103 94 70 
-25.607512 16.453695 -66.741745 101 94 69 
-25.551348 16.492233 -66.898079 101 94 69 
-25.492987 16.529699 -67.050049 101 94 69 
-25.430748 16.564983 -67.193169 101 93 71 
-25.360678 16.595467 -67.316818 100 94 72 
-25.283361 16.621469 -67.422295 100 94 72 
-25.228653 16.662645 -67.589317 101 94 69 
-25.156567 16.692675 -67.711128 100 93 67 
-25.060770 16.707180 -67.769966 99 92 66 
-24.969942 16.725151 -67.842865 99 92 68 
-24.873287 16.739368 -67.900536 99 93 69 
-24.767159 16.747316 -67.932777 99 93 70 
-24.676540 16.765879 -68.008072 99 92 71 
-24.611319 16.801958 -68.154419 99 92 72 
-24.540682 16.834671 -68.287109 98 93 72 
-24.479742 16.874386 -68.448212 98 93 72 
-24.389868 16.894445 -68.529579 97 92 71 
-24.298922 16.913956 -68.608719 98 91 70 
-24.218922 16.941315 -68.719696 99 91 69 
-24.115278 16.952324 -68.764359 100 91 67 
-24.020504 16.969709 -68.834877 101 90 66 
-23.943182 16.999660 -68.956367 103 90 65 
-23.875851 17.037039 -69.107986 103 90 63 
-23.766478 17.044645 -69.138840 102 91 61 
-23.662117 17.055943 -69.184662 100 91 61 
-23.564356 17.072136 -69.250351 98 92 63 
-23.458666 17.082720 -69.293289 98 93 67 
-23.366367 17.103218 -69.376434 99 94 71 
-23.266659 17.118475 -69.438316 100 95 73 
-23.176243 17.140762 -69.528725 100 94 73 
-23.081690 17.160208 -69.607605 101 93 72 
-22.973932 17.169992 -69.647293 102 93 69 
-22.853960 17.170700 -69.650169 102 92 67 
-22.748707 17.182533 -69.698166 102 92 66 
-22.640251 17.192062 -69.736816 103 93 68 
-22.522448 17.194557 -69.746933 102 94 70 
-22.407675 17.199404 -69.766602 102 94 72 
-22.290762 17.202654 -69.779778 101 93 72 
-22.164631 17.198786 -69.764084 99 92 72 
-22.041445 17.197172 -69.757545 98 91 72 
-21.933056 17.207148 -69.798012 100 92 72 
-21.825155 17.217623 -69.840500 101 92 72 
-21.712276 17.224264 -69.867439 102 93 73 
-21.597446 17.229424 -69.888367 102 93 74 
-21.485596 17.237032 -69.919228 101 92 74 
-21.352692 17.227741 -69.881538 101 92 75 
-21.219120 17.217800 -69.841217 102 94 76 
-21.106087 17.224508 -69.868423 103 95 78 
-20.985588 17.225166 -69.871094 103 96 77 
-20.866873 17.227303 -69.879761 102 96 75 
-20.736092 17.219444 -69.847885 101 95 71 
-20.593788 17.201870 -69.776604 100 95 68 
-20.466717 17.196886 -69.756386 101 96 67 
-20.340603 17.192652 -69.739212 102 97 68 
-20.210468 17.184950 -69.707962 102 97 70 
-20.066778 17.165558 -69.629303 102 97 71 
-19.934237 17.155525 -69.588608 103 98 73 
-19.792933 17.137783 -69.516640 103 98 75 
-19.648457 17.117060 -69.432579 104 98 79 
-19.511230 17.102436 -69.373260 105 99 79 
-19.383879 17.096340 -69.348534 104 98 77 
-19.242390 17.077620 -69.272598 105 97 75 
-19.099411 17.057335 -69.190315 105 97 76 
-18.969315 17.048370 -69.153954 106 97 75 
-18.835321 17.035769 -69.102837 107 97 76 
-18.688808 17.011608 -69.004829 109 98 77 
-18.548677 16.992981 -68.929276 109 99 79 
-18.421881 16.986410 -68.902618 108 99 80 
-18.280069 16.965816 -68.819084 108 99 81 
-18.132364 16.939445 -68.712112 108 99 82 
-17.989767 16.917530 -68.623215 108 99 82 
-17.847055 16.895212 -68.532692 107 99 81 
-17.705830 16.874012 -68.446701 107 99 79 
-17.562422 16.850431 -68.351044 107 100 77 
-17.413034 16.820755 -68.230667 108 100 77 
-17.258749 16.785908 -68.089310 107 100 76 
-17.100620 16.746815 -67.930740 107 100 76 
-16.948427 16.713032 -67.793709 107 100 76 
-16.799799 16.682318 -67.669121 106 100 76 
-16.651770 16.651770 -67.545204 107 99 77 
-16.486332 16.603256 -67.348419 108 101 78 
-16.338564 16.571972 -67.221519 109 102 79 
-16.194326 16.543844 -67.107422 109 102 80 
-16.044899 16.509968 -66.970016 109 102 82 
-15.889150 16.469046 -66.804016 109 102 83 
-15.731896 16.425951 -66.629211 109 102 84 
-26.004061 15.804193 -64.561806 104 96 72 
-25.984516 15.860679 -64.792557 105 96 73 
-25.971085 15.921404 -65.040627 105 97 74 
-25.953350 15.980011 -65.280045 105 97 73 
-25.923351 16.031546 -65.490570 105 97 73 
-25.881886 16.076414 -65.673859 104 96 73 
-25.838411 16.120424 -65.853653 104 95 72 
-25.798502 16.167061 -66.044167 104 95 73 
-25.766554 16.219126 -66.256851 104 94 72 
-25.714582 16.258997 -66.419731 103 93 70 
-25.665018 16.300755 -66.590317 102 93 68 
-25.600073 16.333078 -66.722366 100 93 67 
-25.543440 16.371023 -66.877373 100 93 67 
-25.488346 16.410305 -67.037842 101 94 68 
-25.423765 16.443811 -67.174721 101 94 69 
-25.356144 16.475651 -67.304787 100 94 71 
-25.280361 16.502459 -67.414299 100 94 72 
-25.222445 16.541231 -67.572693 100 93 70 
-25.151375 16.571701 -67.697159 100 92 68 
-25.053402 16.584646 -67.750046 99 91 68 
-24.963587 16.603140 -67.825592 100 91 69 
-24.863955 16.615250 -67.875061 101 92 70 
-24.752989 16.619864 -67.893913 102 93 71 
-24.661758 16.637838 -67.967339 102 92 72 
