ply
format ascii 1.0
element vertex 1070
property float x
property float y
property float z
property uchar red
property uchar green
property uchar blue
end_header
-38.470615 21.430641 -60.214878 129 121 87 
-38.378593 21.437635 -60.234524 130 120 89 
-38.215900 21.405081 -60.143055 131 121 91 
-38.132526 21.416897 -60.176258 130 122 91 
-38.006287 21.404638 -60.141815 132 123 92 
-37.826031 21.361807 -60.021469 133 125 93 
-37.725643 21.363968 -60.027542 134 127 92 
-37.656647 21.383968 -60.083733 135 128 92 
-37.478607 21.341986 -59.965775 136 129 94 
-37.306568 21.303192 -59.856777 137 130 95 
-37.166836 21.282686 -59.799156 138 130 98 
-37.081009 21.293015 -59.828178 138 130 100 
-37.008411 21.311024 -59.878780 137 130 103 
-36.892727 21.304251 -59.859749 136 130 106 
-36.767982 21.292192 -59.825871 135 130 106 
-36.651340 21.284773 -59.805023 136 131 106 
-36.565815 21.295433 -59.834972 137 131 105 
-36.448196 21.287409 -59.812428 137 130 105 
-36.285088 21.252695 -59.714886 137 130 104 
-36.154480 21.236872 -59.670429 137 131 103 
-36.064228 21.244732 -59.692513 137 130 101 
-36.054573 21.300253 -59.848515 137 130 101 
-35.971653 21.312685 -59.883446 138 130 104 
-35.872349 21.315454 -59.891228 140 131 105 
-35.730263 21.292744 -59.827415 139 131 106 
-35.550240 21.247229 -59.699528 138 131 106 
-35.413506 21.227394 -59.643799 137 131 107 
-35.290302 21.215578 -59.610600 137 131 107 
-35.167534 21.203955 -59.577942 138 131 109 
-35.068100 21.206373 -59.584736 139 133 110 
-34.946163 21.195158 -59.553226 138 133 112 
-34.852501 21.201077 -59.569855 137 134 113 
-34.763039 21.209593 -59.593784 137 134 111 
-34.667038 21.214159 -59.606609 138 133 110 
-34.542168 21.201031 -59.569725 139 133 109 
-34.410629 21.183722 -59.521088 141 134 109 
-34.326576 21.195627 -59.554543 142 134 109 
-34.242886 21.207829 -59.588825 141 132 109 
-34.147404 21.212780 -59.602741 138 130 107 
-34.017227 21.196146 -59.556000 136 130 106 
-33.889824 21.181139 -59.513836 136 131 107 
-33.746731 21.156208 -59.443787 137 133 109 
-33.616631 21.139292 -59.396255 136 134 112 
-33.512959 21.138943 -59.395271 135 134 113 
-33.425201 21.148661 -59.422581 135 133 113 
-33.332806 21.155497 -59.441784 137 133 112 
-33.235172 21.159039 -59.451736 139 134 112 
-33.123417 21.153584 -59.436409 140 134 110 
-33.013943 21.149555 -59.425095 140 133 107 
-32.898315 21.141550 -59.402599 139 133 103 
-32.779041 21.131144 -59.373360 140 132 100 
-32.660923 21.121416 -59.346027 140 132 97 
-32.553879 21.118814 -59.338715 140 132 95 
-32.445164 21.115107 -59.328300 140 132 96 
-32.330406 21.107431 -59.306732 141 133 98 
-32.227127 21.107224 -59.306152 139 133 99 
-32.116318 21.102068 -59.291668 137 131 99 
-32.001358 21.094141 -59.269394 135 131 99 
-31.897673 21.093622 -59.267933 135 131 100 
-31.814789 21.106899 -59.305237 135 131 101 
-31.710417 21.105959 -59.302601 136 132 103 
-31.615925 21.111610 -59.318478 137 133 104 
-31.498775 21.102121 -59.291813 138 133 104 
-31.382156 21.092924 -59.265972 138 134 104 
-31.292536 21.101873 -59.291119 138 134 102 
-31.187572 21.100502 -59.287266 137 133 101 
-31.082193 21.098839 -59.282593 137 133 101 
-30.977959 21.097944 -59.280079 138 134 104 
-30.886806 21.105984 -59.302670 139 135 106 
-30.786154 21.107563 -59.307106 139 134 106 
-30.689983 21.112236 -59.320236 138 134 106 
-30.601925 21.122541 -59.349190 139 134 108 
-30.501982 21.124683 -59.355209 140 135 111 
-30.396784 21.123188 -59.351009 140 135 111 
-30.289389 21.120152 -59.342476 140 134 109 
-30.189840 21.122585 -59.349312 141 133 106 
-30.086378 21.122286 -59.348473 140 132 105 
-29.976629 21.117558 -59.335182 140 132 106 
-29.884861 21.125505 -59.357517 140 133 108 
-29.795637 21.135313 -59.385075 141 133 110 
-29.683601 21.128952 -59.367203 140 133 110 
-29.588547 21.134676 -59.383282 139 132 110 
-29.490543 21.138327 -59.393543 139 132 111 
-29.377270 21.131020 -59.373009 139 134 112 
-29.274799 21.131456 -59.374241 138 134 110 
-29.190672 21.145187 -59.412819 136 133 108 
-29.100389 21.154539 -59.439095 136 133 107 
-29.004013 21.159512 -59.453068 137 134 107 
-28.903210 21.161278 -59.458031 137 134 107 
-28.817869 21.174421 -59.494957 138 134 108 
-28.752003 21.202017 -59.572495 138 135 107 
-28.667820 21.216257 -59.612507 137 134 105 
-28.561850 21.214418 -59.607342 137 134 104 
-28.481432 21.231613 -59.655651 138 134 102 
-28.400837 21.248802 -59.703949 138 134 102 
-28.344120 21.284046 -59.802979 138 134 101 
-28.264013 21.301922 -59.853207 137 133 101 
-28.180443 21.317310 -59.896442 137 133 101 
-28.135607 21.362219 -60.022625 138 134 103 
-28.079782 21.399090 -60.126225 139 135 105 
-27.996752 21.415424 -60.172123 140 135 107 
-27.925385 21.440838 -60.243526 139 134 108 
-27.840170 21.455769 -60.285480 138 133 107 
-27.735073 21.455433 -60.284534 137 133 106 
-27.675081 21.490120 -60.381996 137 132 106 
-27.600622 21.513794 -60.448513 136 131 107 
-27.508982 21.524202 -60.477760 136 131 108 
-27.454144 21.563601 -60.588455 138 133 109 
-27.413889 21.614798 -60.732307 138 133 109 
-27.358143 21.654127 -60.842819 138 133 109 
-27.314001 21.702984 -60.980095 138 133 107 
-27.244612 21.732084 -61.061855 138 134 108 
-27.114706 21.712948 -61.008087 139 134 109 
-27.027082 21.727655 -61.049412 139 134 110 
-26.968733 21.766104 -61.157444 141 134 111 
-26.929064 21.819992 -61.308857 142 133 111 
-26.897551 21.880943 -61.480114 141 132 110 
-26.801405 21.889593 -61.504417 140 130 109 
-26.800295 21.976242 -61.747879 139 128 107 
-26.817814 22.078924 -62.036388 139 128 108 
-26.786627 22.142172 -62.214100 139 129 110 
-26.737411 22.190969 -62.351212 138 130 113 
-26.658770 22.215641 -62.420532 139 130 114 
-26.605335 22.261608 -62.549686 139 130 112 
-26.496412 22.261332 -62.548908 138 130 109 
-26.366089 22.242996 -62.497395 136 131 105 
-26.261068 22.245945 -62.505680 134 129 101 
-26.175844 22.265760 -62.561356 133 128 100 
-26.145306 22.332449 -62.748734 134 129 102 
-25.751602 22.274591 -62.586170 126 126 101 
-25.745577 22.363743 -62.836662 126 127 101 
-25.695049 22.414829 -62.980206 126 128 101 
-25.663839 22.483278 -63.172527 126 127 98 
-24.554514 22.572536 -63.423321 136 131 102 
-24.039331 22.502571 -63.226734 136 134 106 
-23.966574 22.537374 -63.324528 134 134 108 
-23.809248 22.492609 -63.198742 135 135 112 
-23.739664 22.530699 -63.305771 135 136 114 
-23.664429 22.563757 -63.398655 133 136 113 
-23.601101 22.608532 -63.524460 133 136 113 
-23.430355 22.550341 -63.360958 135 136 113 
-23.311773 22.542046 -63.337650 136 137 113 
-23.274197 22.612371 -63.535248 136 137 114 
-23.246561 22.693071 -63.761997 136 137 114 
-23.151270 22.708185 -63.804459 136 136 113 
-23.021198 22.689163 -63.751015 136 136 112 
-22.896696 22.675472 -63.712547 135 134 112 
-22.466372 22.466372 -63.125023 135 132 111 
-22.321905 22.431326 -63.026558 136 133 110 
-22.293591 22.513233 -63.256695 136 133 108 
-21.965784 22.628069 -63.579353 137 133 106 
-21.823072 22.594595 -63.485298 136 133 105 
-21.740412 22.623270 -63.565872 136 133 105 
-21.638968 22.632593 -63.592068 135 132 105 
-21.501242 22.603870 -63.511360 135 132 105 
-21.345333 22.555637 -63.375835 135 132 105 
-21.294376 22.618378 -63.552128 134 132 105 
-21.194277 22.629305 -63.582829 133 131 105 
-38.509956 21.347910 -60.276455 127 119 85 
-38.431690 21.362574 -60.317856 128 119 85 
-38.317917 21.357529 -60.303608 129 119 85 
-38.257935 21.382517 -60.374165 128 119 84 
-38.200611 21.409134 -60.449318 127 119 85 
-38.035465 21.375303 -60.353798 129 121 86 
-37.876812 21.344944 -60.268074 130 123 87 
-37.729485 21.320818 -60.199955 132 125 88 
-37.540779 21.273108 -60.065247 133 126 90 
-37.348770 21.223257 -59.924492 134 127 92 
-37.226715 21.212988 -59.895496 135 128 93 
-37.139732 21.222706 -59.922932 135 128 95 
-37.041298 21.225912 -59.931988 135 128 99 
-36.920929 21.216534 -59.905506 135 128 102 
-36.799202 21.206320 -59.876667 134 128 102 
-36.684795 21.200279 -59.859612 135 129 102 
-36.582687 21.201330 -59.862579 136 129 103 
-36.459724 21.190268 -59.831345 136 129 103 
-36.301010 21.158302 -59.741089 135 129 101 
-36.182495 21.149654 -59.716671 135 129 99 
-36.110249 21.168076 -59.768684 134 128 96 
-36.103687 21.225222 -59.930038 135 128 96 
-36.033382 21.245115 -59.986210 137 128 98 
-35.917942 21.238436 -59.967346 138 129 100 
-35.772995 21.214216 -59.898964 137 130 101 
-35.598408 21.172230 -59.780415 135 129 102 
-35.440147 21.139736 -59.688667 135 130 104 
-35.304535 21.120602 -59.634644 135 131 106 
-35.182484 21.109489 -59.603264 135 132 109 
-35.080082 21.110138 -59.605091 136 134 111 
-34.952892 21.095829 -59.564690 137 134 112 
-34.859245 21.101738 -59.581379 137 134 112 
-34.770348 21.110569 -59.606312 136 134 111 
-34.674843 21.115425 -59.620026 137 133 109 
-34.546329 21.100153 -59.576900 139 133 109 
-34.417706 21.084721 -59.533329 140 134 110 
-34.333279 21.096352 -59.566174 141 133 109 
-34.252430 21.110260 -59.605438 139 131 108 
-34.153267 21.112928 -59.612976 137 130 108 
-34.042442 21.108383 -59.600140 137 130 111 
-33.927269 21.101105 -59.579594 137 131 113 
-33.776470 21.071558 -59.496166 136 132 114 
-33.633556 21.046766 -59.426163 136 132 115 
-33.522163 21.041603 -59.411587 135 133 115 
-33.433102 21.050472 -59.436626 135 133 115 
-33.340401 21.057095 -59.455326 137 133 114 
-33.242542 21.060492 -59.464920 138 134 114 
-33.130329 21.054787 -59.448811 139 135 112 
-33.018360 21.049204 -59.433048 139 133 108 
-32.902603 21.041164 -59.410347 138 132 103 
-32.785080 21.031937 -59.384293 138 131 99 
-32.671127 21.024952 -59.364571 137 130 95 
-32.563904 21.022266 -59.356987 137 130 93 
-32.450909 21.015827 -59.338802 138 131 94 
-32.338985 21.010042 -59.322472 138 131 96 
-32.233330 21.008305 -59.317566 137 131 98 
-32.117912 21.000174 -59.294605 137 131 99 
-32.004890 20.993561 -59.275936 138 132 98 
-31.900181 20.992376 -59.272594 137 132 97 
-31.820698 21.007839 -59.316250 136 131 96 
-31.721985 21.010666 -59.324234 135 130 96 
-31.628231 21.016806 -59.341568 135 130 97 
-31.505301 21.003534 -59.304096 136 131 99 
-31.384848 20.991833 -59.271057 138 133 101 
-31.294628 21.000341 -59.295082 139 133 102 
-31.190704 20.999681 -59.293221 139 133 103 
-31.088839 21.000408 -59.295269 138 134 106 
-30.980436 20.996708 -59.284821 138 134 108 
-30.887285 21.003355 -59.303589 138 134 108 
-30.786039 21.004522 -59.306885 137 133 106 
-30.689230 21.008734 -59.318779 136 133 105 
-30.601456 21.019182 -59.348278 137 133 106 
-30.502272 21.021837 -59.355774 137 133 107 
-30.396694 21.020086 -59.350834 137 133 107 
-30.287077 21.015522 -59.337948 137 132 105 
-30.187271 21.017759 -59.344261 138 132 103 
-30.083761 21.017422 -59.343311 138 132 102 
-29.972139 21.011396 -59.326294 137 132 103 
-29.880764 21.019573 -59.349380 137 132 104 
-29.793589 21.030769 -59.380997 138 133 106 
-29.680120 21.023418 -59.360241 137 132 107 
-29.585806 21.029633 -59.377785 136 132 108 
-29.487503 21.033043 -59.387417 136 132 109 
-29.373116 21.024967 -59.364613 137 133 109 
-29.272560 21.026770 -59.369701 138 133 108 
-29.189209 21.040983 -59.409836 137 132 106 
-29.099720 21.050861 -59.437725 137 132 106 
-29.003359 21.055820 -59.451725 137 133 106 
-28.900688 21.056215 -59.452843 137 132 105 
-28.815273 21.069231 -59.489594 137 132 105 
-28.745068 21.093502 -59.558125 136 131 103 
-28.664982 21.110672 -59.606606 136 131 102 
-28.560442 21.109892 -59.604397 135 132 100 
-28.481983 21.128452 -59.656807 136 132 100 
-28.401508 21.145649 -59.705360 137 133 101 
-28.344500 21.180506 -59.803780 137 133 102 
-28.264437 21.198328 -59.854103 137 133 102 
-28.181114 21.213827 -59.897865 137 132 103 
-28.136606 21.258770 -60.024761 137 133 103 
-28.085381 21.298950 -60.138210 137 133 103 
-28.009525 21.320684 -60.199577 138 133 103 
-27.934793 21.343437 -60.263824 138 132 104 
-27.845623 21.355289 -60.297287 138 131 105 
-27.740864 21.355232 -60.297123 138 131 105 
-27.678907 21.388247 -60.390343 137 131 105 
-27.609499 21.415733 -60.467953 136 129 104 
-27.537134 21.441128 -60.539654 135 127 103 
-27.479433 21.478178 -60.644264 136 129 104 
-27.423861 21.517183 -60.754398 137 130 106 
-27.365499 21.554293 -60.859180 137 131 107 
-27.320023 21.601877 -60.993538 137 131 107 
-27.257286 21.636133 -61.090260 137 131 107 
-27.137606 21.625280 -61.059612 137 131 108 
-27.040348 21.632278 -61.079372 139 132 109 
-26.988945 21.676161 -61.203278 139 131 110 
-26.948666 21.729359 -61.353485 139 131 110 
-26.912634 21.786417 -61.514591 139 130 109 
-26.813831 21.792913 -61.532932 138 129 109 
-26.810663 21.877502 -61.771770 138 128 108 
-26.825314 21.977365 -62.053738 139 128 107 
-26.792816 22.039253 -62.228477 139 129 109 
-26.745857 22.089697 -62.370907 138 130 111 
-26.678001 22.123220 -62.465561 137 129 111 
-26.627226 22.171240 -62.601151 137 129 109 
-26.516891 22.169859 -62.597252 136 128 108 
-26.379650 22.145880 -62.529541 136 130 106 
-26.309271 22.178062 -62.620415 136 130 105 
-26.273335 22.239670 -62.794361 135 130 106 
-26.234333 22.299183 -62.962399 135 131 108 
-26.225922 22.385305 -63.205570 135 132 110 
-26.127405 22.394918 -63.232712 134 131 110 
-26.036451 22.411123 -63.278465 132 130 109 
-25.870449 22.362591 -63.141434 130 130 107 
-25.717102 22.324633 -63.034260 128 128 103 
-25.680683 22.388288 -63.213989 126 127 100 
-24.610926 22.514030 -63.569031 133 129 105 
-24.085884 22.436167 -63.349174 133 132 107 
-24.006643 22.464931 -63.430393 132 132 109 
-23.830616 22.402975 -63.255463 134 134 113 
-23.770329 22.449755 -63.387543 134 134 115 
-23.698690 22.486198 -63.490444 133 134 115 
-23.655664 22.550259 -63.671322 132 133 116 
-23.468710 22.477074 -63.464680 133 134 115 
-23.352259 22.471041 -63.447647 134 135 115 
-23.305849 22.532669 -63.621655 135 135 115 
-23.273615 22.608654 -63.836201 136 135 113 
-23.170639 22.616318 -63.857841 136 135 112 
-23.056822 22.613420 -63.849659 135 134 110 
-22.922916 22.590700 -63.785503 134 133 110 
-22.503859 22.394085 -63.230354 135 135 114 
-22.346275 22.346275 -63.095367 136 134 113 
-22.323771 22.433741 -63.342327 134 133 110 
-21.874437 22.537298 -63.634727 134 131 102 
-21.797537 22.572067 -63.732899 134 130 102 
-21.696608 22.582184 -63.761459 133 129 102 
-21.596979 22.593763 -63.794155 132 128 102 
-21.457329 22.563377 -63.708359 132 128 102 
-38.527439 21.252909 -60.303818 127 120 84 
-38.452862 21.269566 -60.351086 127 119 83 
-38.349258 21.270216 -60.352932 127 119 82 
-38.290394 21.295753 -60.425388 125 118 81 
-38.237606 21.324820 -60.507858 124 118 81 
-38.103672 21.308664 -60.462025 125 119 82 
-37.938648 21.274988 -60.366467 127 120 84 
-37.787231 21.248775 -60.292091 129 122 85 
-37.665390 21.239096 -60.264626 128 122 86 
-37.521832 21.217079 -60.202160 129 123 86 
-37.360138 21.184658 -60.110165 131 124 87 
-37.206001 21.156353 -60.029850 132 125 90 
-37.081078 21.144547 -59.996349 133 127 94 
-36.959496 21.134584 -59.968086 133 127 97 
-36.817131 21.112648 -59.905838 133 127 99 
-36.705261 21.108124 -59.893002 133 127 100 
-36.604351 21.109896 -59.898026 133 127 102 
-36.469616 21.092115 -59.847576 134 128 103 
-36.309517 21.059519 -59.755089 134 128 103 
-36.194386 21.052895 -59.736290 134 127 101 
-36.123974 21.072319 -59.791405 133 127 99 
-36.116714 21.128799 -59.951668 133 127 97 
-36.050510 21.151022 -60.014725 134 128 97 
-35.929241 21.140974 -59.986214 136 129 99 
-35.785648 21.117695 -59.920155 136 129 99 
-35.611763 21.076349 -59.802845 135 128 100 
-35.461765 21.048943 -59.725079 134 129 101 
-35.339249 21.037733 -59.693275 133 130 102 
-35.216263 21.026180 -59.660492 133 132 104 
-35.110916 21.025120 -59.657486 133 133 106 
-34.986557 21.012636 -59.622063 133 134 108 
-34.878101 21.009659 -59.613613 135 135 109 
-34.780666 21.013319 -59.623997 136 134 109 
-34.682228 21.016396 -59.632729 137 132 108 
-34.553173 21.000879 -59.588703 139 132 108 
-34.427582 20.987383 -59.550407 141 132 109 
-34.341167 20.997763 -59.579857 141 131 109 
-34.261448 21.012308 -59.621132 138 129 107 
-34.160973 21.014174 -59.626423 137 129 106 
-34.050076 21.009621 -59.613506 136 130 109 
-33.934235 21.001980 -59.591824 137 131 111 
-33.783413 20.972578 -59.508400 137 131 113 
-33.640896 20.948166 -59.439129 137 131 114 
-33.528992 20.942724 -59.423691 136 132 114 
-33.441025 20.952248 -59.450714 136 133 113 
-33.347366 20.958252 -59.467747 137 133 112 
-33.252277 20.963392 -59.482338 137 134 111 
-33.140705 20.958139 -59.467430 137 134 109 
-33.030643 20.953815 -59.455162 136 133 105 
-32.910828 20.943254 -59.425194 135 131 102 
-32.792171 20.933367 -59.397141 135 130 99 
-32.678726 20.926756 -59.378380 135 129 98 
-32.573875 20.925621 -59.375164 135 130 97 
-32.457047 20.916763 -59.350029 136 131 97 
-32.342606 20.909391 -59.329109 136 130 97 
-32.237537 20.908052 -59.325310 136 129 97 
-32.120155 20.898691 -59.298752 137 130 98 
-32.006096 20.891439 -59.278172 139 133 97 
-31.900719 20.889826 -59.273594 139 133 97 
-31.821415 20.905331 -59.317593 137 131 96 
-31.722324 20.907896 -59.324867 135 130 96 
-31.628632 20.914047 -59.342319 135 129 97 
-31.505827 20.900925 -59.305084 136 130 99 
-31.385572 20.889414 -59.272423 138 132 100 
-31.296148 20.898415 -59.297966 140 134 102 
-31.191902 20.897545 -59.295498 140 134 103 
-31.089819 20.898123 -59.297138 139 133 105 
-30.980759 20.894001 -59.285439 139 134 106 
-30.886976 20.900188 -59.302994 138 133 107 
-30.785414 20.901134 -59.305679 136 133 106 
-30.688066 20.904959 -59.316532 135 132 105 
-30.599901 20.915085 -59.345264 135 133 104 
-30.500870 20.917826 -59.353043 135 133 104 
-30.395060 20.915922 -59.347645 135 133 104 
-30.284052 20.910416 -59.332020 135 133 102 
-30.184385 20.912731 -59.338589 136 133 101 
-30.080275 20.911972 -59.336430 136 134 101 
-29.967014 20.904825 -59.316151 135 134 101 
-29.875181 20.912626 -59.338291 134 133 101 
-29.784187 20.921072 -59.362255 134 132 101 
-29.672226 20.914799 -59.344452 134 132 103 
-29.579237 20.921900 -59.364601 134 132 104 
-29.471863 20.918840 -59.355919 132 131 104 
-29.356422 20.910013 -59.330875 134 131 104 
-29.258503 20.913649 -59.341187 136 131 103 
-29.185305 20.935041 -59.401890 136 131 103 
-29.097059 20.945755 -59.432293 137 132 103 
-29.000542 20.950569 -59.445950 137 133 103 
-28.896299 20.949818 -59.443813 137 132 102 
-28.807680 20.960426 -59.473919 135 130 101 
-28.739315 20.985903 -59.546204 134 129 100 
-28.661171 21.004396 -59.598682 134 129 100 
-28.558681 21.005117 -59.600727 134 130 100 
-28.481337 21.024405 -59.655453 136 131 101 
-28.400932 21.041567 -59.704151 137 133 104 
-28.343126 21.075659 -59.800884 138 133 106 
-28.263277 21.093550 -59.851646 138 133 107 
-28.180191 21.109148 -59.895905 138 133 107 
-28.137102 21.154932 -60.025818 137 132 105 
-28.087032 21.195789 -60.141750 137 132 103 
-28.014582 21.220001 -60.210445 136 131 102 
-27.938889 21.241926 -60.272659 136 130 103 
-27.849520 21.253582 -60.305729 137 130 103 
-27.745785 21.254318 -60.307816 137 130 103 
-27.687321 21.289871 -60.408699 136 129 102 
-27.617489 21.316921 -60.485451 135 127 101 
-27.539776 21.338070 -60.545460 135 127 102 
-27.481878 21.374794 -60.649662 136 128 103 
-27.427294 21.414387 -60.762001 137 129 104 
-27.371397 21.453257 -60.872295 137 129 105 
-27.325962 21.500660 -61.006802 136 129 106 
-27.265753 21.536762 -61.109234 136 129 106 
-27.150545 21.529533 -61.088726 136 129 107 
-27.049257 21.533329 -61.099499 138 131 109 
-26.996338 21.575813 -61.220039 139 132 111 
-26.957920 21.630266 -61.374550 137 131 110 
-26.928143 21.692116 -61.550041 136 129 109 
-26.824642 21.694830 -61.557743 136 129 109 
-26.820877 21.778551 -61.795300 137 129 108 
-26.834311 21.876968 -62.074551 139 129 108 
-26.799215 21.936453 -62.243336 139 130 109 
-26.754654 21.988644 -62.391422 138 130 109 
-26.692863 22.027039 -62.500366 137 129 108 
-26.640833 22.073833 -62.633141 136 128 107 
-26.527992 22.070421 -62.623459 135 128 107 
-26.400105 22.054409 -62.578026 135 129 108 
-26.334883 22.090832 -62.681374 136 130 108 
-26.299570 22.152750 -62.857067 136 131 109 
-26.244835 22.198757 -62.987606 135 131 109 
-26.238276 22.286066 -63.235340 136 130 110 
-26.153500 22.307396 -63.295864 138 130 111 
-26.071568 22.331343 -63.363808 137 130 111 
-25.942320 22.314791 -63.316845 136 129 109 
-25.821625 22.305489 -63.290451 134 129 106 
-25.744860 22.334215 -63.371960 131 127 102 
-24.162605 22.397301 -63.550964 129 129 106 
-24.035223 22.381424 -63.505913 130 131 109 
-23.848476 22.309866 -63.302872 133 133 113 
-23.786823 22.355207 -63.431526 133 134 115 
-23.724777 22.400604 -63.560333 133 133 117 
-23.678360 22.461246 -63.732407 133 133 118 
-23.493130 22.390165 -63.530716 134 133 117 
-23.373793 22.381508 -63.506153 134 133 115 
-23.357420 22.471830 -63.762436 134 132 113 
-23.309706 22.532715 -63.935192 134 133 112 
-23.206560 22.540344 -63.956837 135 133 110 
-23.089434 22.534399 -63.939972 135 132 108 
-22.965694 22.521914 -63.904541 133 131 107 
-22.514725 22.295069 -63.260887 136 135 113 
-22.356968 22.247375 -63.125557 136 135 114 
-22.347912 22.347912 -63.410824 133 132 112 
-38.562653 21.167543 -60.358936 128 120 87 
-38.485710 21.182871 -60.402641 128 120 86 
-38.365841 21.174591 -60.379032 127 119 84 
-38.309677 21.201521 -60.455822 125 118 84 
-38.249954 21.226622 -60.527397 123 118 83 
-38.120823 21.213240 -60.489239 123 118 83 
-37.959705 21.181934 -60.399971 125 119 83 
-37.825405 21.165462 -60.353001 126 120 83 
-37.701038 21.154470 -60.321659 127 119 83 
-37.612389 21.163517 -60.347454 126 118 82 
-37.489033 21.153030 -60.317551 127 119 82 
-37.285339 21.097027 -60.157856 129 121 85 
-37.198994 21.107294 -60.187138 129 123 88 
-37.065063 21.090544 -60.139374 128 125 91 
-36.870327 21.039001 -59.992397 130 125 94 
-36.742706 21.025572 -59.954109 130 126 96 
-36.624943 21.017723 -59.931728 131 126 99 
-36.479572 20.993942 -59.863914 132 127 102 
-36.316319 20.959703 -59.766285 133 128 105 
-36.206341 20.956106 -59.756023 133 128 104 
-36.135735 20.975342 -59.810875 132 127 102 
-36.126278 21.030281 -59.967537 132 126 98 
-36.059002 21.051788 -60.028862 133 127 97 
-35.941490 21.044003 -60.006660 134 128 98 
-35.794952 21.019129 -59.935734 135 128 98 
-35.624611 20.980091 -59.824417 136 128 98 
-35.490349 20.962137 -59.773220 135 129 97 
-35.380169 20.958342 -59.762398 134 130 97 
-35.283794 20.962725 -59.774895 133 130 97 
-35.189613 20.968443 -59.791206 131 131 98 
-35.032360 20.936501 -59.700119 131 132 102 
-34.918831 20.930574 -59.683224 132 132 105 
-34.800175 20.921534 -59.657444 135 132 106 
-34.690998 20.918154 -59.647804 137 132 106 
-34.562733 20.903210 -59.605194 138 131 106 
-34.438828 20.890820 -59.569862 139 131 107 
-34.355759 20.903202 -59.605167 139 130 106 
-34.269230 20.913548 -59.634670 137 129 105 
-34.170807 20.916677 -59.643593 135 128 104 
-34.065414 20.915543 -59.640362 134 128 106 
-33.949554 20.907957 -59.618732 135 129 108 
-33.800972 20.880110 -59.539326 136 130 109 
-33.658318 20.855768 -59.469913 136 131 110 
-33.545834 20.850027 -59.453541 137 131 110 
-33.453472 20.856792 -59.472836 136 131 110 
-33.360134 20.862995 -59.490520 136 131 109 
-33.266617 20.869122 -59.507988 136 131 108 
-33.152584 20.862373 -59.488747 136 131 106 
-33.042740 20.858229 -59.476929 136 129 103 
-32.917679 20.844425 -59.437569 135 128 101 
-32.796810 20.833195 -59.405544 134 128 100 
-32.683464 20.826685 -59.386986 135 129 101 
-32.581161 20.827198 -59.388447 135 131 101 
-32.463085 20.817598 -59.361069 136 132 101 
-32.346321 20.808779 -59.335922 136 131 100 
-32.240646 20.807062 -59.331028 134 129 98 
-32.123505 20.797911 -59.304935 134 129 98 
-32.007423 20.789387 -59.280628 136 131 99 
-31.900225 20.786598 -59.272675 138 132 100 
-31.822832 20.803274 -59.320229 138 131 101 
-31.722733 20.805170 -59.325630 137 130 101 
-31.628622 20.811016 -59.342300 138 131 103 
-31.506056 20.798115 -59.305515 138 132 102 
-31.385670 20.786575 -59.272610 138 131 100 
-31.298965 20.797338 -59.303303 138 132 99 
-31.194382 20.796255 -59.300213 138 132 99 
-31.092451 20.796936 -59.302158 138 132 98 
-30.976408 20.788155 -59.277111 138 132 99 
-30.882719 20.794365 -59.294823 137 132 102 
-30.782064 20.795910 -59.299229 136 131 103 
-30.686525 20.800934 -59.313553 135 132 104 
-30.598618 20.811182 -59.342773 135 133 105 
-30.500189 20.814318 -59.351719 135 133 104 
-30.393740 20.811985 -59.345066 134 133 103 
-30.281900 20.805931 -59.327805 134 134 101 
-30.180443 20.806993 -59.330837 134 133 99 
-30.076698 20.806484 -59.329380 135 134 99 
-29.957594 20.795305 -59.297504 134 133 97 
-29.867525 20.804276 -59.323086 133 132 97 
-29.780251 20.815262 -59.354408 133 132 98 
-29.668554 20.809195 -59.337109 133 132 101 
-29.576208 20.816704 -59.358521 133 131 103 
-29.468639 20.813515 -59.349426 133 130 103 
-29.351366 20.803425 -59.320656 133 129 103 
-29.252186 20.806131 -59.328377 134 129 102 
-29.182367 20.829817 -59.395916 135 130 102 
-29.093796 20.840237 -59.425625 136 131 101 
-28.997423 20.845121 -59.439556 137 132 101 
-28.893648 20.844704 -59.438362 137 132 101 
-28.804573 20.854925 -59.467506 136 129 100 
-28.736580 20.880537 -59.540539 134 128 101 
-28.657824 20.898485 -59.591721 135 129 102 
-28.554565 20.898632 -59.592136 135 130 103 
-28.478626 20.918846 -59.649780 136 131 104 
-28.398363 20.936020 -59.698750 138 132 107 
-28.340504 20.969896 -59.795349 138 132 109 
-28.261639 20.988422 -59.848175 137 132 109 
-28.178133 21.003626 -59.891529 137 131 109 
-28.136616 21.050356 -60.024780 137 131 107 
-28.089539 21.093260 -60.147118 136 130 105 
-28.017456 21.117636 -60.216621 136 130 104 
-27.941259 21.139080 -60.277771 135 128 104 
-27.852955 21.151491 -60.313164 135 128 103 
-27.749367 21.152348 -60.315605 137 128 102 
-27.691069 21.187862 -60.416878 136 128 100 
-27.620960 21.214579 -60.493053 136 127 99 
-27.548176 21.239433 -60.563931 137 127 98 
-27.486557 21.273121 -60.659985 138 127 100 
-27.430916 21.311712 -60.770031 139 128 102 
-27.376822 21.351807 -60.884357 139 128 103 
-27.329508 21.397522 -61.014713 137 129 105 
-27.270252 21.434206 -61.119320 136 129 105 
-27.157436 21.428915 -61.104233 136 130 107 
-27.056229 21.432777 -61.115246 138 131 110 
-27.003054 21.474869 -61.235271 138 132 112 
-26.964605 21.529053 -61.389771 137 130 109 
-26.943459 21.597534 -61.585049 135 128 106 
-26.840618 21.600817 -61.594406 135 129 106 
-26.829210 21.678001 -61.814499 137 129 107 
-26.843193 21.776405 -62.095100 138 129 109 
-26.805630 21.833616 -62.258236 139 130 110 
-26.763622 21.887659 -62.412334 138 130 111 
-26.704048 21.927713 -62.526550 136 129 110 
-26.648663 21.971550 -62.651546 135 128 107 
-26.539223 21.970995 -62.649967 134 129 107 
-26.413586 21.956972 -62.609982 135 130 107 
-26.355448 21.999176 -62.730324 135 131 106 
-26.338121 22.075935 -62.949203 135 130 105 
-26.287931 22.125677 -63.091038 135 129 105 
-26.258490 22.193369 -63.284061 137 129 107 
-26.182528 22.222145 -63.366116 137 127 108 
-26.103985 22.248966 -63.442593 137 126 108 
-25.961435 22.221230 -63.363503 137 127 107 
-25.838806 22.210377 -63.332561 136 128 106 
-25.772844 22.248352 -63.440849 134 128 103 
-23.897999 22.246063 -63.434319 131 131 110 
-23.844862 22.403078 -63.882046 131 130 112 
-23.724936 22.394566 -63.857773 133 132 114 
-23.508425 22.294376 -63.572083 135 133 116 
-23.387470 22.284286 -63.543316 135 133 115 
-23.384813 22.387356 -63.837215 133 132 111 
-23.357250 22.467449 -64.065598 133 131 109 
-23.241739 22.463308 -64.053787 134 131 108 
-23.123537 22.456511 -64.034409 134 130 106 
-22.996525 22.441053 -63.990330 132 129 105 
-38.595665 21.080784 -60.410603 128 120 90 
-38.531425 21.103041 -60.474388 128 119 90 
-38.451511 21.116814 -60.513855 128 119 90 
-38.422894 21.158909 -60.634483 127 119 91 
-38.317795 21.159002 -60.634750 125 119 89 
-38.156639 21.128057 -60.546074 124 119 87 
-37.975525 21.085857 -60.425144 124 118 84 
-37.844929 21.071552 -60.384151 125 118 82 
-37.721550 21.061199 -60.354481 125 118 81 
-37.646275 21.077721 -60.401825 125 116 78 
-37.549217 21.082102 -60.414379 125 116 77 
-37.461994 21.092047 -60.442879 126 118 77 
-37.429066 21.132702 -60.559387 125 119 80 
-37.330528 21.136438 -60.570095 124 120 83 
-37.144901 21.090750 -60.439159 125 121 86 
-36.707977 20.961090 -60.067600 128 123 93 
-36.500732 20.902128 -59.898640 131 125 98 
-36.324593 20.860695 -59.779900 134 128 102 
-36.215412 20.857588 -59.770996 135 129 102 
-36.143627 20.876060 -59.823936 133 128 100 
-36.134460 20.930912 -59.981121 131 126 97 
-36.068565 20.953125 -60.044777 132 126 96 
-35.953621 20.946892 -60.026917 133 127 96 
-35.801708 20.919020 -59.947044 135 128 97 
-35.633442 20.881405 -59.839252 137 128 97 
-35.502033 20.865231 -59.792896 137 129 97 
-35.390358 20.860592 -59.779606 135 129 96 
-35.290730 20.863049 -59.786648 134 129 96 
-35.195656 20.868221 -59.801472 133 131 97 
-35.038319 20.836397 -59.710270 132 131 101 
-34.925385 20.830868 -59.694424 132 131 104 
-34.807430 20.822302 -59.669880 135 131 105 
-34.696484 20.817890 -59.657238 137 132 105 
-34.567654 20.802689 -59.613678 138 131 105 
-34.449024 20.793556 -59.587505 137 130 105 
-34.365734 20.805761 -59.622478 137 129 104 
-34.274441 20.813181 -59.643742 136 129 104 
-34.176342 20.816500 -59.653255 134 129 103 
-34.075264 20.818018 -59.657604 133 128 103 
-33.964016 20.813314 -59.644123 134 129 104 
-33.826790 20.792614 -59.584805 134 130 104 
-33.694546 20.774858 -59.533920 135 130 104 
-33.582134 20.769258 -59.517876 135 130 104 
-33.473953 20.766249 -59.509247 136 130 105 
-33.373688 20.768145 -59.514683 136 130 105 
-33.276245 20.771816 -59.525208 136 129 105 
-33.159065 20.763153 -59.500378 136 128 105 
-33.047119 20.757721 -59.484814 135 127 103 
-32.922134 20.744041 -59.445610 136 126 102 
-32.800667 20.732498 -59.412533 135 127 102 
-32.685143 20.724649 -59.390041 135 129 102 
-32.583130 20.725344 -59.392033 135 130 102 
-32.464794 20.715631 -59.364197 135 131 102 
-32.348724 20.707306 -59.340336 134 132 102 
-32.243832 20.706102 -59.336891 132 130 100 
-32.125389 20.696165 -59.308411 132 129 100 
-32.007008 20.686201 -59.279858 134 129 101 
-31.898020 20.682264 -59.268578 137 130 103 
-31.822245 20.699905 -59.319134 138 131 105 
-31.720284 20.700575 -59.321053 139 132 106 
-31.627895 20.707514 -59.340939 139 132 105 
-31.505409 20.694729 -59.304298 139 132 104 
-31.385187 20.683353 -59.271698 138 132 101 
-31.299433 20.694691 -59.304188 137 131 98 
-31.194548 20.693413 -59.300526 136 131 96 
-31.091711 20.693491 -59.300747 136 131 95 
-30.974602 20.684036 -59.273659 136 132 97 
-30.879593 20.689327 -59.288818 136 132 99 
-30.779257 20.691072 -59.293819 135 131 101 
-30.684082 20.696310 -59.308830 134 132 103 
-30.597427 20.707350 -59.340466 135 133 105 
-30.498404 20.710064 -59.348244 134 133 105 
-30.391806 20.707636 -59.341286 134 134 104 
-30.279732 20.701450 -59.323555 134 134 102 
-30.178785 20.702852 -59.327576 134 133 99 
-30.067017 20.696817 -59.310280 133 131 97 
-29.951818 20.688370 -59.286072 133 131 96 
-29.864317 20.699060 -59.316711 133 131 96 
-29.778751 20.711174 -59.351421 133 132 98 
-29.665176 20.703821 -59.330353 133 131 100 
-29.573351 20.711649 -59.352787 133 130 103 
-29.463686 20.706995 -59.339451 134 130 105 
-29.343567 20.694937 -59.304893 135 130 105 
-29.244886 20.697966 -59.313572 136 129 104 
-29.178213 20.723749 -59.387459 135 128 102 
-29.088436 20.733246 -59.414677 136 128 101 
-28.992971 20.738745 -59.430431 138 130 102 
-28.886391 20.736301 -59.423431 138 130 103 
-28.800150 20.748495 -59.458374 136 129 102 
-28.733660 20.775057 -59.534489 134 128 102 
-28.654724 20.792778 -59.585278 134 129 103 
-28.551394 20.792862 -59.585518 136 129 104 
-28.475630 20.813097 -59.643497 137 129 104 
-28.394583 20.829603 -59.690804 137 130 105 
-28.332958 20.860529 -59.779427 136 129 106 
-28.253525 20.878525 -59.830994 134 129 106 
-28.172344 20.895355 -59.879227 134 130 106 
-28.134275 20.944405 -60.019787 134 130 105 
-28.090706 20.989710 -60.149612 134 130 104 
-28.020941 21.015705 -60.224110 133 129 103 
-27.942949 21.035704 -60.281418 133 127 103 
-27.855202 21.048479 -60.318031 134 127 101 
-27.752895 21.050308 -60.323273 135 128 100 
-27.694344 21.085466 -60.424019 135 127 98 
-27.625244 21.112829 -60.502434 135 126 96 
-27.551195 21.136604 -60.570568 136 126 96 
-27.489174 21.169823 -60.665764 138 127 97 
-27.433716 21.208372 -60.776230 139 128 99 
-27.381601 21.249815 -60.894989 139 128 100 
-27.338541 21.298632 -61.034882 137 129 101 
-27.275991 21.332584 -61.132183 137 130 104 
-27.168137 21.331232 -61.128307 137 130 105 
-27.072371 21.339399 -61.151711 137 130 107 
-27.033854 21.392931 -61.305115 137 130 107 
-27.020563 21.466930 -61.517170 135 127 103 
-27.012417 21.545618 -61.742664 132 125 100 
-26.967041 21.595121 -61.884525 132 125 99 
-26.890665 21.620094 -61.956093 134 127 102 
-26.852840 21.676388 -62.117413 137 130 108 
-26.812923 21.731441 -62.275177 138 131 110 
-26.769506 21.784092 -62.426056 137 130 111 
-26.715038 21.828140 -62.552284 134 128 110 
-26.660103 21.872166 -62.678444 133 128 107 
-26.554422 21.874748 -62.685848 133 129 105 
-26.452112 21.880142 -62.701305 134 130 103 
-26.402435 21.929296 -62.842159 133 130 102 
-26.400612 22.018768 -63.098557 134 128 100 
-26.325399 22.047522 -63.180962 135 128 101 
-26.307066 22.124353 -63.401131 135 128 102 
-26.214689 22.139296 -63.443954 135 128 104 
-26.118849 22.151428 -63.478722 135 127 106 
-25.974207 22.122101 -63.394676 135 127 107 
-25.860296 22.118807 -63.385235 134 126 106 
-25.792351 22.154968 -63.488865 133 126 104 
-23.544575 22.218121 -63.669838 133 132 113 
-23.415842 22.200869 -63.620403 135 133 112 
-23.430277 22.319838 -63.961327 133 130 108 
-23.400986 22.398087 -64.185562 133 129 106 
-23.320671 22.428013 -64.271324 133 128 104 
-23.232735 22.450865 -64.336807 132 126 102 
-38.639473 20.999714 -60.479176 130 121 93 
-38.579208 21.024090 -60.549381 129 120 94 
-38.512394 21.045025 -60.609669 129 120 95 
-38.461689 21.074898 -60.695709 129 120 95 
-38.364193 21.079226 -60.708172 128 121 93 
-38.185921 21.039074 -60.592533 127 120 89 
-37.990974 20.989489 -60.449730 125 119 85 
-37.857430 20.973644 -60.404095 124 118 81 
-37.752483 20.973602 -60.403976 125 117 77 
-37.666100 20.983900 -60.433632 124 117 75 
-37.576607 20.992517 -60.458447 124 115 73 
-37.529026 21.024664 -60.551033 123 115 72 
-37.487404 21.060339 -60.653778 123 116 75 
-37.367760 21.052259 -60.630508 123 117 79 
-37.238609 21.038761 -60.591633 123 116 81 
-37.108738 21.024780 -60.551365 123 117 82 
-36.974812 21.008415 -60.504234 124 118 85 
-36.442627 20.824358 -59.974152 131 124 93 
-36.360046 20.836702 -60.009705 132 125 93 
-36.247139 20.831690 -59.995266 131 124 92 
-36.162750 20.843082 -60.028080 130 124 93 
-36.084286 20.857969 -60.070950 130 125 94 
-35.965618 20.849632 -60.046944 132 125 95 
-35.812458 20.821198 -59.965050 134 126 97 
-35.643005 20.783094 -59.855312 136 127 98 
-35.518597 20.771111 -59.820797 135 127 98 
-35.403229 20.764357 -59.801346 134 127 97 
-35.298588 20.763876 -59.799961 134 127 97 
-35.201645 20.767933 -59.811646 134 130 99 
-35.044922 20.736641 -59.721523 134 131 102 
-34.932301 20.731335 -59.706245 133 130 103 
-34.816883 20.724335 -59.686085 135 130 103 
-34.707867 20.721113 -59.676807 136 130 103 
-34.583324 20.708576 -59.640701 136 129 102 
-34.468723 20.701935 -59.621574 135 128 101 
-34.389599 20.716625 -59.663879 134 127 100 
-34.290142 20.719120 -59.671066 133 128 101 
-34.181496 20.716059 -59.662247 133 130 102 
-34.081650 20.718328 -59.668785 133 129 101 
-33.973286 20.715418 -59.660400 133 129 101 
-33.836067 20.694843 -59.601147 134 130 101 
-33.709393 20.680609 -59.560150 134 130 100 
-33.595474 20.674139 -59.541519 134 130 100 
-33.482468 20.668190 -59.524387 136 129 102 
-33.379421 20.668373 -59.524914 136 129 103 
-33.279819 20.670694 -59.531601 136 128 104 
-33.163246 20.662458 -59.507881 135 126 104 
-33.049809 20.656130 -59.489655 134 126 103 
-32.925522 20.642960 -59.451725 136 127 104 
-32.804443 20.631725 -59.419369 136 129 104 
-32.686928 20.622667 -59.393280 135 129 104 
-32.585629 20.623816 -59.396587 133 128 102 
-32.466419 20.613600 -59.367168 133 129 102 
-32.349648 20.604870 -59.342030 133 130 102 
-32.244774 20.603691 -59.338631 132 130 101 
-32.125767 20.593441 -59.309109 132 129 101 
-32.006287 20.582821 -59.278526 134 128 101 
-31.896273 20.578241 -59.265335 136 129 102 
-31.821606 20.596510 -59.317947 138 131 104 
-31.719181 20.596870 -59.318989 138 131 105 
-31.625031 20.602627 -59.335564 137 130 102 
-31.499462 20.587883 -59.293102 136 129 100 
-31.380241 20.577208 -59.262356 135 129 98 
-31.299145 20.591541 -59.303642 135 129 96 
-31.193815 20.589977 -59.299133 135 130 94 
-31.090643 20.589830 -59.298710 134 131 95 
-30.973207 20.580204 -59.270988 135 132 97 
-30.877426 20.584951 -59.284660 135 132 100 
-30.775251 20.585453 -59.286102 134 132 103 
-30.678299 20.589462 -59.297649 134 132 106 
-30.593691 20.601812 -59.333218 134 133 107 
-30.495104 20.604799 -59.341824 133 133 107 
-30.386013 20.600687 -59.329979 132 132 106 
-30.273649 20.594318 -59.311638 133 132 104 
-30.173332 20.596130 -59.316856 135 131 100 
-30.062996 20.591093 -59.302349 133 130 98 
-29.947912 20.582758 -59.278339 133 130 96 
-29.860979 20.593779 -59.310081 133 130 96 
-29.774147 20.604946 -59.342243 133 130 97 
-29.658979 20.596514 -59.317959 132 129 99 
-29.565678 20.603260 -59.337387 132 128 101 
-29.459391 20.600973 -59.330799 134 129 104 
-29.340763 20.590010 -59.299229 135 130 105 
-29.239933 20.591501 -59.303524 136 128 103 
-29.172174 20.616379 -59.375168 136 126 101 
-29.083097 20.626310 -59.403770 137 126 100 
-28.985596 20.630318 -59.415314 138 127 101 
-28.877674 20.626911 -59.405502 137 128 101 
-28.795876 20.642204 -59.449551 136 128 101 
-28.731300 20.670000 -59.529602 134 128 102 
-28.649960 20.685892 -59.575367 132 129 103 
-28.546474 20.685850 -59.575249 134 129 103 
-28.471659 20.706661 -59.635185 135 129 103 
-28.386629 20.720167 -59.674084 135 128 102 
-28.316893 20.744976 -59.745533 133 128 101 
-28.235809 20.761623 -59.793476 132 128 100 
-28.160250 20.782473 -59.853519 132 129 101 
-28.131742 20.838327 -60.014385 132 131 103 
-28.091780 20.886082 -60.151913 132 132 103 
-28.022877 20.912594 -60.228271 132 131 103 
-27.944832 20.932459 -60.285480 132 130 102 
-27.856407 20.944666 -60.320641 133 128 101 
-27.755381 20.947458 -60.328678 133 127 101 
-27.697620 20.983046 -60.431171 133 127 100 
-27.629578 21.011086 -60.511929 133 127 99 
-27.553831 21.033459 -60.576363 135 127 98 
-27.490480 21.065502 -60.668644 137 128 98 
-27.436987 21.105375 -60.783478 137 127 96 
-27.409422 21.165577 -60.956860 135 126 94 
-27.365219 21.213348 -61.094440 135 125 96 
-27.293036 21.239716 -61.170383 137 128 100 
-27.179605 21.234066 -61.154110 138 129 103 
-27.094059 21.250242 -61.200699 137 129 103 
-27.090418 21.331038 -61.433388 135 127 101 
-27.076790 21.404577 -61.645184 131 124 98 
-27.054384 21.471735 -61.838593 129 123 95 
-27.010202 21.522074 -61.983574 129 124 94 
-26.921305 21.537045 -62.026688 132 127 98 
-26.891380 21.599503 -62.206566 135 129 103 
-26.852219 21.655016 -62.366444 135 130 105 
-26.821619 21.717911 -62.547581 133 128 106 
-26.751638 21.749298 -62.637981 132 127 105 
-26.677996 21.777956 -62.720512 132 127 104 
-26.568512 21.777470 -62.719112 133 128 103 
-26.474997 21.790121 -62.755547 133 128 101 
-26.432364 21.844929 -62.913395 133 128 99 
-26.412359 21.918970 -63.126633 134 127 99 
-26.343811 21.953176 -63.225147 134 126 100 
-26.316374 22.022070 -63.423561 134 127 102 
-26.222118 22.035393 -63.461933 135 127 104 
-26.126387 22.047583 -63.497040 134 128 106 
-25.987511 22.023314 -63.427143 133 128 107 
-25.877827 22.023682 -63.428204 132 127 105 
-25.809481 22.059385 -63.531029 131 126 103 
-38.656326 20.903830 -60.505558 131 121 94 
-38.592037 20.925926 -60.569515 130 120 94 
-38.523663 20.945927 -60.627403 129 120 94 
-38.478199 20.978523 -60.721760 130 121 93 
-38.387066 20.986336 -60.744366 131 121 91 
-38.208752 20.946394 -60.628761 130 121 89 
-38.015717 20.898144 -60.489098 128 119 85 
-37.872509 20.877089 -60.428154 126 118 81 
-37.782055 20.885080 -60.451290 127 119 80 
-37.752338 20.926783 -60.571995 128 120 80 
-37.633915 20.919411 -60.550655 126 118 78 
-37.555504 20.934301 -60.593758 124 116 76 
-37.499817 20.961977 -60.673862 124 116 77 
-37.377644 20.952538 -60.646545 124 116 78 
-37.251106 20.940594 -60.611969 124 116 79 
-37.122746 20.927553 -60.574223 124 116 80 
-37.016132 20.926735 -60.571854 124 116 80 
-36.940220 20.943316 -60.619846 123 116 81 
-36.867737 20.961941 -60.673759 125 117 83 
-36.669468 20.908951 -60.520382 126 118 85 
-36.514126 20.880203 -60.437172 125 117 85 
-36.253513 20.790918 -60.178741 126 119 89 
-36.124302 20.776693 -60.137566 127 121 92 
-36.003517 20.767246 -60.110218 128 122 93 
-35.871128 20.751032 -60.063286 129 123 94 
-35.688145 20.705368 -59.931114 131 125 96 
-35.543079 20.681499 -59.862026 132 125 96 
-35.415279 20.667568 -59.821705 132 126 96 
-35.303680 20.663036 -59.808586 133 126 97 
-35.205612 20.666422 -59.818386 135 129 100 
-35.052811 20.637602 -59.734966 136 130 104 
-34.943443 20.634258 -59.725292 136 130 104 
-34.823147 20.624422 -59.696819 135 129 102 
-34.732029 20.631861 -59.718353 135 127 99 
-34.600151 20.615059 -59.669720 135 127 98 
-34.490677 20.611546 -59.659546 134 126 96 
-34.405331 20.622471 -59.691174 132 126 96 
-34.301361 20.622269 -59.690586 132 126 98 
-34.187199 20.615917 -59.672203 133 129 100 
-34.085854 20.617279 -59.676147 133 130 100 
-33.976860 20.614008 -59.666679 134 129 101 
-33.840515 20.594074 -59.608982 133 129 101 
-33.717899 20.582399 -59.575184 133 128 102 
-33.605587 20.576960 -59.559441 133 128 103 
-33.488068 20.568289 -59.534344 134 128 103 
-33.384449 20.568129 -59.533878 134 128 103 
-33.285671 20.570959 -59.542072 134 127 102 
-33.168716 20.562538 -59.517700 133 126 101 
-33.051994 20.554209 -59.493591 133 126 102 
-32.927135 20.540752 -59.454639 135 127 104 
-32.806274 20.529713 -59.422684 136 129 106 
-32.688057 20.520262 -59.395332 134 129 106 
-32.586735 20.521393 -59.398602 133 128 104 
-32.466808 20.510778 -59.367878 132 128 103 
-32.349739 20.501905 -59.342197 131 128 101 
-32.245556 20.501167 -59.340061 131 129 99 
-32.125504 20.490305 -59.308620 133 129 99 
-32.004154 20.478542 -59.274578 135 128 99 
-31.891783 20.472467 -59.256989 136 128 99 
-31.818291 20.491392 -59.311764 137 129 101 
-31.713799 20.490410 -59.308922 137 129 101 
-31.620687 20.496798 -59.327415 135 128 99 
-31.496468 20.482998 -59.287472 134 128 98 
-31.378304 20.473057 -59.258701 134 128 97 
-31.298151 20.487934 -59.301762 133 128 95 
-31.191874 20.485752 -59.295444 133 129 96 
-31.087658 20.484913 -59.293018 133 130 98 
-30.966200 20.472670 -59.257576 134 131 101 
-30.870766 20.477608 -59.271870 133 132 103 
-30.770288 20.479221 -59.276543 133 131 105 
-30.673143 20.483072 -59.287685 132 131 106 
-30.585800 20.493517 -59.317917 131 131 107 
-30.489519 20.498022 -59.330959 131 131 108 
-30.381212 20.494444 -59.320602 131 131 108 
-30.267748 20.487354 -59.300079 132 130 105 
-30.163538 20.486498 -59.297604 133 129 102 
-30.055784 20.483223 -59.288120 132 128 99 
-29.939734 20.474251 -59.262154 132 128 97 
-29.852156 20.484755 -59.292557 131 128 95 
-29.765068 20.495670 -59.324150 131 128 95 
-29.643988 20.483171 -59.287975 131 128 95 
-29.551573 20.490463 -59.309082 131 128 97 
-29.434767 20.480835 -59.281208 132 129 99 
-29.323000 20.474657 -59.263329 134 129 101 
-29.234171 20.484507 -59.291840 135 128 102 
-29.168180 20.510487 -59.367039 136 127 101 
-29.077751 20.519407 -59.392853 137 126 98 
-28.970005 20.516125 -59.383354 137 125 97 
-28.858486 20.510139 -59.366032 136 126 97 
-28.788313 20.533600 -59.433937 135 127 99 
-28.726500 20.563213 -59.519653 133 128 101 
-28.643824 20.578053 -59.562607 131 129 101 
-28.540560 20.578157 -59.562904 132 129 102 
-28.460209 20.594841 -59.611198 132 128 100 
-28.367636 20.602772 -59.634155 131 127 98 
-28.296938 20.626705 -59.703430 130 127 96 
-28.217430 20.644369 -59.754559 129 127 95 
-28.150154 20.671146 -59.832062 130 129 97 
-28.128363 20.731646 -60.007175 132 131 100 
-28.092031 20.781837 -60.152454 133 132 103 
-28.023544 20.808527 -60.229710 132 131 103 
-27.945782 20.828505 -60.287529 132 131 104 
-27.858454 20.841475 -60.325073 132 129 104 
-27.758623 20.845154 -60.335724 131 127 104 
-27.702547 20.881844 -60.441917 132 127 104 
-27.632751 20.908432 -60.518875 132 127 102 
-27.558552 20.931877 -60.586742 134 127 102 
-27.491919 20.961271 -60.671822 136 128 100 
-27.439484 21.001759 -60.789009 134 127 97 
-27.415476 21.064400 -60.970325 132 124 94 
-27.377708 21.116915 -61.122326 133 122 93 
-27.305363 21.143064 -61.198013 136 125 98 
-27.186806 21.133493 -61.170315 138 128 102 
-27.101027 21.149427 -61.216434 138 128 103 
-27.097057 21.229584 -61.448444 134 126 100 
-27.079866 21.299974 -61.652187 131 124 98 
-27.057734 21.367020 -61.846249 129 123 95 
-27.016037 21.419088 -61.996960 129 125 94 
-26.932823 21.438526 -62.053223 131 127 96 
-26.912561 21.508432 -62.255566 132 128 100 
-26.866270 21.558016 -62.399078 133 129 102 
-26.833221 21.618668 -62.574635 132 127 103 
-26.761299 21.648367 -62.660603 131 126 103 
-26.684427 21.674290 -62.735634 132 126 104 
-26.576366 21.674988 -62.737652 133 127 103 
-26.484484 21.688940 -62.778038 133 127 101 
-26.447084 21.747810 -62.948433 133 126 99 
-26.429258 21.823330 -63.167023 133 125 98 
-26.357033 21.854372 -63.256878 133 125 99 
-26.329924 21.923243 -63.456219 133 125 101 
-26.229198 21.931137 -63.479069 134 127 104 
-26.132372 21.942371 -63.511589 133 128 106 
-25.996435 21.920723 -63.448925 132 128 106 
-25.894205 21.927433 -63.468349 130 128 104 
-25.827036 21.964018 -63.574242 129 127 102 
-38.679012 20.810989 -60.541061 131 122 92 
-38.621716 20.836784 -60.616100 130 121 91 
-38.551498 20.855728 -60.671211 130 121 91 
-38.493202 20.881243 -60.745434 131 121 91 
-38.396523 20.886021 -60.759331 132 121 90 
-38.219810 20.847170 -60.646313 131 120 89 
-38.037983 20.805307 -60.524529 130 119 87 
-37.911167 20.793381 -60.489838 128 118 85 
-37.925575 20.859066 -60.680920 131 120 87 
-37.863583 20.882978 -60.750481 131 121 87 
-37.760021 20.884035 -60.753555 130 119 85 
-37.628559 20.869621 -60.711624 127 117 82 
-37.513363 20.864172 -60.695774 125 117 79 
-37.386303 20.852079 -60.660595 124 117 77 
-37.261227 20.841026 -60.628437 125 117 78 
-37.136570 20.830145 -60.596783 125 118 81 
-37.028835 20.828720 -60.592636 125 117 82 
-36.946651 20.841702 -60.630405 124 116 82 
-36.877075 20.861887 -60.689129 123 114 83 
-36.703358 20.823109 -60.576313 122 113 84 
-36.528759 20.783606 -60.461395 122 114 85 
-36.277756 20.700275 -60.218983 123 116 88 
-36.168560 20.697615 -60.211243 123 117 91 
-36.077263 20.705212 -60.233341 123 117 92 
-35.942429 20.687792 -60.182667 124 118 93 
-35.769203 20.648111 -60.067234 126 120 94 
-35.606766 20.614443 -59.969288 127 121 94 
-35.468536 20.594633 -59.911663 128 122 93 
-35.324600 20.571386 -59.844032 129 124 94 
-35.219433 20.570642 -59.841866 132 127 96 
-35.076141 20.547562 -59.774723 135 129 98 
-34.965523 20.543543 -59.763031 135 129 99 
-34.864559 20.545187 -59.767815 134 127 96 
-34.779423 20.556196 -59.799843 132 125 93 
-34.627747 20.527826 -59.717312 134 126 92 
-34.501129 20.514185 -59.677628 134 126 92 
-34.416355 20.525417 -59.710304 132 126 92 
-34.317974 20.528578 -59.719498 132 126 93 
-34.203236 20.521942 -59.700195 133 128 95 
-34.092983 20.517965 -59.688625 134 128 98 
-33.980663 20.512716 -59.673359 134 128 100 
-33.845989 20.493902 -59.618626 133 127 100 
-33.722939 20.482031 -59.584087 133 126 102 
-33.610806 20.476738 -59.568691 134 127 105 
-33.494389 20.468792 -59.545578 134 127 106 
-33.388710 20.467384 -59.541481 134 127 105 
-33.288620 20.469398 -59.547344 133 126 103 
-33.170471 20.460289 -59.520844 132 126 100 
-33.054478 20.452457 -59.498058 132 125 100 
-32.928993 20.438686 -59.457993 134 127 102 
