ply
format ascii 1.0
element vertex 1199
property float x
property float y
property float z
property uchar red
property uchar green
property uchar blue
end_header
-2.010085 -2.019181 -5.238955 157 156 134 
-2.000685 -2.018873 -5.238156 164 161 140 
-1.991517 -2.018798 -5.237963 161 157 135 
-1.981967 -2.018334 -5.236757 156 151 129 
-1.972791 -2.018247 -5.236533 156 151 130 
-1.963680 -2.018227 -5.236481 157 152 132 
-1.954134 -2.017756 -5.235260 159 153 133 
-1.945931 -2.018676 -5.237646 152 147 127 
-1.939834 -2.021799 -5.245749 139 137 117 
-1.930959 -2.022042 -5.246380 130 131 109 
-1.921852 -2.022044 -5.246383 129 131 111 
-1.912708 -2.022005 -5.246284 120 123 105 
-1.902257 -2.020580 -5.242585 110 112 95 
-1.892797 -2.020197 -5.241593 104 103 88 
-1.883452 -2.019934 -5.240909 99 96 81 
-1.873687 -2.019216 -5.239047 93 89 72 
-1.863493 -2.018027 -5.235961 86 81 64 
-1.848054 -2.011117 -5.218034 77 73 55 
-1.838908 -2.011023 -5.217789 62 59 44 
-1.829828 -2.010999 -5.217727 56 54 39 
-1.820761 -2.010989 -5.217702 53 51 38 
-1.811698 -2.010985 -5.217690 52 50 39 
-1.802635 -2.010980 -5.217677 52 49 38 
-1.793563 -2.010965 -5.217638 55 51 38 
-1.784492 -2.010951 -5.217603 53 49 37 
-1.775418 -2.010933 -5.217556 54 50 40 
-1.763430 -2.007597 -5.208900 64 59 49 
-1.754157 -2.007335 -5.208220 69 65 55 
-1.743710 -2.005718 -5.204025 77 72 60 
-1.734631 -2.005667 -5.203894 85 81 67 
-1.725961 -2.006091 -5.204992 92 89 78 
-1.716654 -2.005774 -5.204172 101 99 89 
-1.707609 -2.005764 -5.204143 106 104 96 
-1.698347 -2.005495 -5.203445 118 116 107 
-1.689211 -2.005373 -5.203130 131 127 115 
-1.680132 -2.005319 -5.202991 142 137 125 
-1.668937 -2.002725 -5.196259 158 153 140 
-1.659888 -2.002691 -5.196171 164 160 149 
-1.650851 -2.002672 -5.196121 172 167 155 
-1.641867 -2.002717 -5.196239 184 178 165 
-1.632909 -2.002795 -5.196440 191 186 169 
-1.623886 -2.002793 -5.196437 193 190 169 
-1.614795 -2.002707 -5.196213 198 192 168 
-1.605590 -2.002477 -5.195617 191 176 151 
-1.605637 -2.013850 -5.225125 149 122 98 
-1.703151 -2.148293 -5.573950 91 52 30 
-1.805484 -2.290386 -5.942623 76 25 6 
-1.807595 -2.306241 -5.983761 76 17 1 
-1.805379 -2.316729 -6.010972 77 11 0 
-1.800541 -2.323954 -6.029718 78 9 0 
-1.792252 -2.326783 -6.037058 80 12 0 
-1.784504 -2.330352 -6.046319 78 13 0 
-1.780640 -2.339066 -6.068928 77 11 0 
-1.774951 -2.345470 -6.085545 78 9 0 
-1.766349 -2.348081 -6.092319 79 9 0 
-1.760114 -2.353887 -6.107384 80 12 0 
-1.751217 -2.356184 -6.113341 81 15 0 
-1.739813 -2.355113 -6.110563 81 15 0 
-1.726733 -2.351746 -6.101829 78 14 0 
-1.718630 -2.355160 -6.110685 76 14 0 
-1.708709 -2.356108 -6.113145 77 13 0 
-1.700524 -2.359477 -6.121886 77 13 0 
-1.689444 -2.358846 -6.120249 77 12 0 
-1.677362 -2.356800 -6.114940 77 13 0 
-1.665428 -2.354936 -6.110105 78 14 0 
-1.654069 -2.353867 -6.107331 79 16 1 
-1.645368 -2.356591 -6.114398 79 16 1 
-1.632079 -2.352736 -6.104397 78 15 0 
-1.618437 -2.348321 -6.092941 77 14 0 
-1.610100 -2.351594 -6.101433 77 14 0 
-1.597759 -2.349023 -6.094762 77 14 0 
-1.588914 -2.351592 -6.101428 77 15 0 
-1.575668 -2.347640 -6.091174 77 15 0 
-1.566131 -2.349197 -6.095213 80 17 0 
-1.554211 -2.347176 -6.089970 80 16 0 
-1.541268 -2.343573 -6.080621 80 14 0 
-1.529945 -2.342399 -6.077575 80 14 0 
-1.519263 -2.342197 -6.077052 79 14 1 
-1.508430 -2.341759 -6.075914 80 16 2 
-1.496848 -2.340142 -6.071720 81 19 4 
-1.484830 -2.337817 -6.065687 80 19 4 
-1.468955 -2.329343 -6.043701 79 18 2 
-1.454237 -2.322594 -6.026191 78 16 1 
-1.442527 -2.320588 -6.020984 78 15 0 
-1.432794 -2.321754 -6.024011 79 15 0 
-1.421998 -2.321202 -6.022578 79 15 0 
-1.410192 -2.318983 -6.016821 79 14 0 
-1.398836 -2.317475 -6.012909 78 13 0 
-1.385688 -2.312953 -6.001175 78 12 0 
-1.373483 -2.309948 -5.993379 78 13 0 
-1.361545 -2.307352 -5.986642 78 13 0 
-1.351378 -2.307737 -5.987642 78 12 0 
-1.339545 -2.305263 -5.981224 79 11 0 
-1.328519 -2.304149 -5.978333 80 11 0 
-1.316163 -2.300695 -5.969370 82 11 1 
-1.303408 -2.296481 -5.958436 82 11 1 
-1.292692 -2.295822 -5.956726 81 10 0 
-1.279630 -2.290950 -5.944088 81 12 0 
-1.268296 -2.289119 -5.939335 79 13 0 
-1.256085 -2.285662 -5.930367 79 12 0 
-1.244376 -2.283070 -5.923640 79 13 0 
-1.232415 -2.279967 -5.915590 80 15 2 
-1.220797 -2.277454 -5.909069 80 16 4 
-1.209851 -2.276161 -5.905715 80 17 6 
-1.197713 -2.272583 -5.896432 79 16 5 
-1.187018 -2.271708 -5.894160 77 15 3 
-1.175514 -2.269253 -5.887791 77 13 2 
-1.164568 -2.267843 -5.884134 77 12 2 
-1.154260 -2.267661 -5.883661 77 13 2 
-1.142743 -2.265079 -5.876963 78 14 3 
-1.131336 -2.262673 -5.870718 79 15 4 
-1.119734 -2.259826 -5.863333 79 15 4 
-1.108409 -2.257494 -5.857282 80 16 3 
-1.096899 -2.254736 -5.850125 80 16 4 
-1.085403 -2.251957 -5.842915 81 17 5 
-1.074102 -2.249535 -5.836631 82 19 6 
-1.063178 -2.247863 -5.832293 82 17 4 
-1.051898 -2.245399 -5.825899 82 15 1 
-1.041270 -2.244292 -5.823027 82 14 0 
-1.029870 -2.241482 -5.815737 83 14 0 
-1.019028 -2.239843 -5.811485 84 14 0 
-1.008153 -2.238099 -5.806961 83 14 0 
-0.997351 -2.236484 -5.802768 82 15 0 
-0.986482 -2.234684 -5.798100 83 15 0 
-0.976137 -2.234046 -5.796444 83 14 0 
-0.965331 -2.232328 -5.791986 83 13 0 
-0.954769 -2.231144 -5.788914 83 12 0 
-0.943915 -2.229245 -5.783988 84 13 0 
-0.933453 -2.228244 -5.781389 84 14 0 
-0.923035 -2.227323 -5.779001 84 14 0 
-0.912177 -2.225311 -5.773780 84 15 0 
-0.901542 -2.223803 -5.769867 85 16 0 
-0.890877 -2.222189 -5.765679 85 16 0 
-0.880442 -2.221116 -5.762895 85 16 0 
-0.869821 -2.219543 -5.758813 86 15 0 
-0.859503 -2.218716 -5.756669 86 15 0 
-0.849525 -2.218760 -5.756782 87 16 0 
-0.839359 -2.218307 -5.755607 87 16 0 
-0.829134 -2.217684 -5.753990 86 15 0 
-0.819152 -2.217703 -5.754041 87 15 0 
-0.808809 -2.216735 -5.751528 89 17 0 
-0.798738 -2.216497 -5.750911 90 19 0 
-0.788370 -2.215421 -5.748118 90 19 0 
-0.777870 -2.213939 -5.744274 88 18 0 
-0.767850 -2.213802 -5.743918 87 18 0 
-0.757980 -2.214098 -5.744687 86 19 0 
-0.747981 -2.214023 -5.744493 86 20 0 
-0.738096 -2.214289 -5.745183 87 20 0 
-0.728001 -2.213921 -5.744228 89 22 1 
-0.718010 -2.213866 -5.744083 89 22 2 
-0.707792 -2.213096 -5.742086 89 21 3 
-0.697911 -2.213376 -5.742813 89 21 4 
-0.688149 -2.214044 -5.744547 89 21 3 
-0.678275 -2.214369 -5.745390 88 19 2 
-0.668450 -2.214864 -5.746674 87 18 1 
-0.658234 -2.214061 -5.744590 88 19 0 
-0.648094 -2.213491 -5.743113 90 21 0 
-0.638175 -2.213670 -5.743577 91 21 0 
-0.628236 -2.213783 -5.743869 91 22 1 
-0.618200 -2.213556 -5.743279 91 21 0 
-0.608256 -2.213653 -5.743533 90 21 0 
-0.598664 -2.215059 -5.747179 91 21 0 
-0.588892 -2.215830 -5.749181 90 20 0 
-0.578932 -2.215914 -5.749398 90 20 0 
-0.569090 -2.216457 -5.750809 89 19 0 
-0.559157 -2.216659 -5.751332 87 18 0 
-0.549257 -2.217001 -5.752220 88 19 0 
-0.539257 -2.216947 -5.752078 90 21 0 
-0.529510 -2.217949 -5.754678 89 20 0 
-0.519444 -2.217625 -5.753839 90 21 0 
-0.509462 -2.217657 -5.753921 91 22 0 
-0.499697 -2.218653 -5.756504 92 23 1 
-0.490160 -2.220726 -5.761882 92 22 3 
-0.480091 -2.220419 -5.761087 92 21 6 
-0.470241 -2.221140 -5.762957 90 21 8 
-0.460415 -2.222001 -5.765192 88 20 6 
-0.450405 -2.221997 -5.765181 88 21 6 
-0.440813 -2.224101 -5.770639 88 22 5 
-0.431119 -2.225779 -5.774993 87 21 4 
-0.421140 -2.226027 -5.775637 86 19 2 
-0.411129 -2.226111 -5.775857 85 20 0 
-0.401247 -2.226919 -5.777952 87 22 0 
-0.391131 -2.226437 -5.776702 89 22 1 
-0.381129 -2.226593 -5.777107 89 20 1 
-0.371218 -2.227311 -5.778968 89 19 0 
-0.361303 -2.228034 -5.780844 91 19 1 
-0.351356 -2.228601 -5.782316 93 19 1 
-0.341584 -2.230340 -5.786829 91 18 0 
-0.331819 -2.232235 -5.791745 89 18 0 
-0.321925 -2.233351 -5.794641 88 18 0 
-0.312290 -2.236397 -5.802544 88 19 1 
-0.303095 -2.242903 -5.819423 87 20 1 
-0.293439 -2.246325 -5.828302 85 23 2 
-0.286729 -2.273351 -5.898425 91 36 11 
-2.370795 -2.166751 -5.596632 76 82 62 
-2.360466 -2.166188 -5.595178 76 82 62 
-2.336998 -2.153515 -5.562442 72 77 57 
-2.278967 -2.108753 -5.446825 66 70 50 
-2.248544 -2.089272 -5.396504 65 66 44 
-2.220899 -2.072220 -5.352459 61 59 36 
-2.200867 -2.062156 -5.326467 55 52 29 
-2.188605 -2.059321 -5.319142 50 48 25 
-2.175069 -2.055256 -5.308643 43 43 23 
-2.165560 -2.054978 -5.307925 41 42 22 
-2.156100 -2.054745 -5.307324 39 41 22 
-2.145998 -2.053895 -5.305129 35 37 21 
-2.135478 -2.052636 -5.301876 40 41 24 
-2.121728 -2.048248 -5.290542 48 47 28 
-2.093328 -2.029618 -5.242421 59 56 36 
-2.081262 -2.026731 -5.234963 66 62 42 
-2.072132 -2.026690 -5.234859 66 64 47 
-2.066790 -2.030371 -5.244366 71 72 55 
-2.059099 -2.031766 -5.247969 77 79 62 
-2.050797 -2.032568 -5.250040 84 86 70 
-2.042882 -2.033762 -5.253125 92 95 79 
-2.034013 -2.034013 -5.253774 100 102 86 
-2.024901 -2.034022 -5.253797 106 105 89 
-2.015751 -2.033993 -5.253722 113 110 94 
-2.004210 -2.031540 -5.247386 125 120 104 
-1.992803 -2.029201 -5.241343 135 130 115 
-1.981793 -2.027247 -5.236297 146 141 125 
-1.972765 -2.027312 -5.236464 150 144 130 
-1.963672 -2.027309 -5.236458 153 148 135 
-1.953623 -2.026315 -5.233891 164 158 145 
-1.943148 -2.024870 -5.230156 169 163 149 
-1.934043 -2.024843 -5.230088 167 162 147 
-1.924949 -2.024828 -5.230049 166 164 147 
-1.915671 -2.024619 -5.229508 171 170 151 
-1.906567 -2.024592 -5.229440 173 172 153 
-1.897475 -2.024579 -5.229405 172 171 152 
-1.888384 -2.024566 -5.229372 172 170 153 
-1.879256 -2.024513 -5.229235 170 167 153 
-1.866403 -2.020426 -5.218680 163 160 146 
-1.857480 -2.020576 -5.219066 157 154 138 
-1.850552 -2.022907 -5.225087 157 154 137 
-1.841733 -2.023185 -5.225804 156 152 133 
-1.832681 -2.023207 -5.225863 153 150 130 
-1.823620 -2.023220 -5.225896 147 145 126 
-1.814079 -2.022698 -5.224548 138 135 117 
-1.798854 -2.015801 -5.206732 126 123 106 
-1.789609 -2.015569 -5.206134 120 116 100 
-1.780083 -2.015017 -5.204709 111 109 93 
-1.769765 -2.013559 -5.200943 101 100 84 
-1.760488 -2.013276 -5.200210 94 93 75 
-1.751450 -2.013265 -5.200181 87 87 67 
-1.743402 -2.014397 -5.203105 82 83 64 
-1.733714 -2.013636 -5.201141 73 74 57 
-1.723400 -2.012137 -5.197269 64 65 49 
-1.714257 -2.011997 -5.196907 59 58 42 
-1.704735 -2.011407 -5.195383 50 48 34 
-1.695699 -2.011388 -5.195333 45 43 32 
-1.686672 -2.011379 -5.195310 49 47 35 
-1.677646 -2.011371 -5.195289 54 51 39 
-1.668420 -2.011122 -5.194647 65 63 49 
-1.659255 -2.010945 -5.194189 75 74 63 
-1.650237 -2.010945 -5.194189 75 72 64 
-1.641204 -2.010925 -5.194139 77 74 66 
-1.632230 -2.010979 -5.194277 82 80 71 
-1.623166 -2.010922 -5.194130 93 89 75 
-1.614046 -2.010794 -5.193801 113 104 84 
-1.605004 -2.010764 -5.193721 131 112 91 
-1.597246 -2.012350 -5.197818 116 84 64 
-1.702788 -2.157509 -5.572759 89 44 25 
-1.805559 -2.300798 -5.942868 79 25 6 
-1.806850 -2.315675 -5.981296 79 18 1 
-1.804187 -2.325628 -6.007003 79 13 0 
-1.799259 -2.332760 -6.025424 79 11 0 
-1.790921 -2.335529 -6.032577 79 13 0 
-1.783017 -2.338898 -6.041280 77 12 0 
-1.778944 -2.347364 -6.063146 76 10 0 
-1.773426 -2.354012 -6.080319 78 8 0 
-1.764756 -2.356531 -6.086824 78 9 0 
-1.758055 -2.361724 -6.100238 79 11 0 
-1.747809 -2.362190 -6.101442 79 13 0 
-1.737292 -2.362293 -6.101707 79 14 0 
-1.725687 -2.360909 -6.098132 78 14 0 
-1.716334 -2.362608 -6.102521 77 15 1 
-1.707517 -2.365070 -6.108880 77 13 0 
-1.698428 -2.367184 -6.114342 76 12 0 
-1.687284 -2.366442 -6.112423 76 11 0 
-1.676218 -2.365802 -6.110770 77 13 0 
-1.662592 -2.361516 -6.099700 79 15 2 
-1.651697 -2.361079 -6.098573 80 16 3 
-1.642872 -2.363615 -6.105123 80 17 3 
-1.630455 -2.360983 -6.098324 79 15 1 
-1.617068 -2.356903 -6.087785 78 14 0 
-1.608618 -2.360012 -6.095815 78 14 0 
-1.596082 -2.357128 -6.088367 78 15 0 
-1.587506 -2.360092 -6.096023 78 15 0 
-1.574690 -2.356750 -6.087390 77 15 0 
-1.564097 -2.356714 -6.087297 79 15 0 
-1.552839 -2.355667 -6.084592 81 15 0 
-1.539825 -2.351924 -6.074925 81 15 0 
-1.528623 -2.350916 -6.072321 81 15 0 
-1.517920 -2.350667 -6.071678 80 15 0 
-1.507298 -2.350542 -6.071355 80 15 1 
-1.494168 -2.346475 -6.060849 79 17 2 
-1.482440 -2.344568 -6.055926 79 17 2 
-1.467247 -2.337114 -6.036671 79 16 1 
-1.452941 -2.330977 -6.020819 79 15 0 
-1.441558 -2.329474 -6.016938 79 15 0 
-1.431800 -2.330594 -6.019830 79 14 0 
-1.420964 -2.329964 -6.018202 79 14 0 
-1.409526 -2.328328 -6.013978 79 14 0 
-1.398235 -2.326913 -6.010322 78 13 0 
-1.384856 -2.321976 -5.997571 78 13 0 
-1.372258 -2.318284 -5.988035 80 13 0 
-1.360208 -2.315469 -5.980764 80 14 0 
-1.349956 -2.315693 -5.981342 80 13 0 
-1.338950 -2.314619 -5.978566 79 11 0 
-1.327929 -2.313502 -5.975682 80 11 0 
-1.315192 -2.309353 -5.964965 81 12 1 
-1.302636 -2.305459 -5.954907 82 12 1 
-1.290733 -2.302667 -5.947697 82 13 1 
-1.278422 -2.299098 -5.938478 81 14 0 
-1.267447 -2.297892 -5.935363 79 14 0 
-1.254834 -2.293672 -5.924463 77 13 0 
-1.243528 -2.291791 -5.919603 78 14 0 
-1.231361 -2.288280 -5.910534 80 17 1 
-1.219784 -2.285813 -5.904163 81 18 3 
-1.209166 -2.285120 -5.902372 81 17 5 
-1.197062 -2.281581 -5.893231 80 15 5 
-1.186353 -2.280661 -5.890854 78 14 3 
-1.174912 -2.278307 -5.884776 77 13 1 
-1.163392 -2.275758 -5.878191 75 11 0 
-1.152604 -2.274608 -5.875220 74 11 0 
-1.141869 -2.273543 -5.872469 77 13 1 
-1.130292 -2.270766 -5.865297 79 15 1 
-1.119008 -2.268534 -5.859532 79 15 2 
-1.107929 -2.266681 -5.854745 80 16 4 
-1.096626 -2.264329 -5.848671 80 16 4 
-1.085001 -2.261263 -5.840750 81 17 4 
-1.073504 -2.258409 -5.833379 82 18 4 
-1.062552 -2.256659 -5.828859 82 18 2 
-1.051455 -2.254562 -5.823444 83 15 0 
-1.040847 -2.253484 -5.820657 83 13 0 
-1.029504 -2.250778 -5.813669 83 13 0 
-1.018806 -2.249443 -5.810221 84 14 0 
-1.007911 -2.247641 -5.805567 83 14 0 
-0.996866 -2.245466 -5.799948 84 15 0 
-0.986168 -2.244035 -5.796252 84 15 0 
-0.975854 -2.243458 -5.794762 84 14 0 
-0.965038 -2.241702 -5.790226 84 13 0 
-0.954428 -2.240393 -5.786845 84 13 0 
-0.943726 -2.238839 -5.782831 84 13 0 
-0.933140 -2.237528 -5.779445 85 13 0 
-0.922658 -2.236443 -5.776641 84 12 0 
-0.911655 -2.234055 -5.770474 86 13 0 
-0.901034 -2.232563 -5.766621 87 14 0 
-0.890363 -2.230908 -5.762346 88 15 0 
-0.879923 -2.229804 -5.759495 88 15 0 
-0.869555 -2.228860 -5.757055 87 14 0 
-0.859230 -2.228003 -5.754841 87 14 0 
-0.849181 -2.227852 -5.754452 87 14 0 
-0.839096 -2.227602 -5.753805 86 15 0 
-0.828928 -2.227120 -5.752561 86 14 0 
-0.819015 -2.227321 -5.753080 87 15 0 
-0.808565 -2.226048 -5.749793 88 16 0 
-0.798314 -2.225301 -5.747861 88 17 0 
-0.787951 -2.224216 -5.745061 88 17 0 
-0.777666 -2.223327 -5.742765 87 18 0 
-0.767621 -2.223111 -5.742207 86 19 0 
-0.757783 -2.223495 -5.743197 86 20 0 
-0.747789 -2.223426 -5.743020 86 21 0 
-0.737791 -2.223342 -5.742802 85 21 0 
-0.727585 -2.222623 -5.740945 86 21 0 
-0.717827 -2.223270 -5.742616 88 22 1 
-0.707530 -2.222241 -5.739958 89 22 1 
-0.697564 -2.222240 -5.739956 89 22 1 
-0.687916 -2.223263 -5.742599 88 21 1 
-0.678027 -2.223529 -5.743284 89 20 0 
-0.668270 -2.224242 -5.745127 88 19 0 
-0.658077 -2.223504 -5.743220 89 20 0 
-0.647948 -2.222959 -5.741814 90 20 0 
-0.638003 -2.223040 -5.742023 90 20 0 
-0.627995 -2.222902 -5.741667 90 20 0 
-0.618046 -2.222973 -5.741848 90 20 0 
-0.608124 -2.223143 -5.742288 90 20 0 
-0.598575 -2.224703 -5.746317 91 21 0 
-0.588767 -2.225341 -5.747966 90 21 0 
-0.578840 -2.225538 -5.748475 90 20 0 
-0.568961 -2.225937 -5.749505 89 19 1 
-0.559070 -2.226295 -5.750431 87 18 0 
-0.549081 -2.226274 -5.750375 89 20 1 
-0.539106 -2.226310 -5.750468 90 22 1 
-0.529358 -2.227299 -5.753023 89 21 1 
-0.519319 -2.227082 -5.752462 89 21 0 
-0.509347 -2.227145 -5.752627 90 22 0 
-0.499560 -2.228037 -5.754929 91 22 1 
-0.490037 -2.230170 -5.760438 91 22 3 
-0.479798 -2.229062 -5.757576 90 21 3 
-0.469826 -2.229173 -5.757864 90 19 4 
-0.460177 -2.230858 -5.762215 90 19 4 
-0.450198 -2.230979 -5.762530 90 20 4 
-0.440574 -2.232909 -5.767514 91 21 3 
-0.430941 -2.234883 -5.772611 89 20 2 
-0.421051 -2.235579 -5.774412 86 19 1 
-0.411038 -2.235648 -5.774588 86 20 0 
-0.401151 -2.236417 -5.776576 88 22 0 
-0.391004 -2.235739 -5.774824 90 22 0 
-0.381018 -2.235973 -5.775429 89 20 0 
-0.371100 -2.236628 -5.777119 88 18 0 
-0.361062 -2.236576 -5.776987 88 18 0 
-0.351126 -2.237175 -5.778533 90 20 0 
-0.341432 -2.239391 -5.784257 90 20 1 
-0.331694 -2.241449 -5.789571 88 20 0 
-0.321840 -2.242820 -5.793115 87 19 0 
-0.312197 -2.245808 -5.800830 86 19 0 
-0.303066 -2.252793 -5.818872 86 21 1 
-0.293413 -2.256244 -5.827787 86 25 3 
-0.286812 -2.284249 -5.900123 92 36 12 
-2.257040 -2.030429 -5.221104 131 129 107 
-2.246342 -2.028954 -5.217311 146 144 124 
-2.237399 -2.029058 -5.217579 141 140 121 
-2.228419 -2.029130 -5.217762 138 139 118 
-2.219422 -2.029186 -5.217906 136 140 117 
-2.213827 -2.032365 -5.226082 130 135 113 
-2.209693 -2.036918 -5.237790 128 134 112 
-2.200980 -2.037271 -5.238697 128 134 112 
-2.191399 -2.036819 -5.237535 125 131 107 
-2.177571 -2.032399 -5.226170 119 124 98 
-2.165079 -2.029195 -5.217930 112 115 87 
-2.156001 -2.029177 -5.217884 111 113 85 
-2.146938 -2.029173 -5.217875 113 114 85 
-2.138386 -2.029655 -5.219112 105 105 77 
-2.130044 -2.030340 -5.220875 96 96 68 
-2.120986 -2.030346 -5.220889 93 95 67 
-2.111931 -2.030355 -5.220912 91 92 66 
-2.102908 -2.030394 -5.221013 87 88 62 
-2.095041 -2.031554 -5.223998 78 78 54 
-2.088129 -2.033656 -5.229403 70 69 45 
-2.081220 -2.035778 -5.234858 68 66 43 
-2.072080 -2.035728 -5.234728 63 63 43 
-2.060273 -2.033045 -5.227829 60 60 41 
-2.050325 -2.032181 -5.225608 55 56 37 
-2.041144 -2.032073 -5.225330 51 53 35 
-2.032005 -2.032005 -5.225154 53 56 38 
-2.022914 -2.031986 -5.225106 53 54 38 
-2.013786 -2.031928 -5.224957 50 50 36 
-2.004538 -2.031749 -5.224498 44 44 33 
-1.995462 -2.031743 -5.224483 43 43 33 
-1.985835 -2.031173 -5.223018 52 52 40 
-1.965352 -2.019444 -5.192855 68 66 54 
-1.956336 -2.019443 -5.192854 72 69 60 
-1.947634 -2.019768 -5.193690 72 69 63 
-1.944953 -2.026370 -5.210665 86 81 75 
-1.936180 -2.026656 -5.211400 96 90 81 
-1.927136 -2.026660 -5.211411 100 93 82 
-1.918107 -2.026679 -5.211460 107 100 86 
-1.905565 -2.022969 -5.201922 124 118 102 
-1.896175 -2.022587 -5.200938 138 133 118 
-1.887334 -2.022788 -5.201456 143 139 125 
-1.878804 -2.023328 -5.202842 148 145 133 
-1.870119 -2.023704 -5.203810 151 149 140 
-1.866111 -2.029169 -5.217864 156 154 145 
-1.856351 -2.028404 -5.215895 162 159 149 
-1.843336 -2.024056 -5.204715 169 165 153 
-1.833625 -2.023310 -5.202797 173 168 153 
-1.823261 -2.021834 -5.199002 181 175 159 
-1.812413 -2.019804 -5.193781 188 183 167 
-1.803357 -2.019760 -5.193668 190 184 170 
-1.794258 -2.019668 -5.193431 186 181 167 
-1.785196 -2.019615 -5.193296 183 179 164 
-1.776110 -2.019536 -5.193093 179 177 160 
-1.767013 -2.019443 -5.192854 178 176 157 
-1.757631 -2.019022 -5.191771 176 175 153 
-1.748710 -2.019129 -5.192046 173 173 149 
-1.739924 -2.019394 -5.192727 171 171 148 
-1.730858 -2.019334 -5.192573 166 165 141 
-1.721499 -2.018931 -5.191537 158 157 131 
-1.712172 -2.018561 -5.190585 150 148 121 
-1.703121 -2.018513 -5.190463 144 142 114 
-1.694073 -2.018471 -5.190352 136 135 109 
-1.685053 -2.018459 -5.190324 129 129 105 
-1.675785 -2.018150 -5.189528 116 116 93 
-1.666774 -2.018148 -5.189523 112 112 90 
-1.657763 -2.018147 -5.189520 113 114 96 
-1.648745 -2.018136 -5.189492 106 104 89 
-1.641187 -2.019922 -5.194086 88 83 71 
-1.698772 -2.102348 -5.406038 67 61 49 
-1.687697 -2.100245 -5.400630 61 53 38 
-1.675749 -2.097026 -5.392353 73 59 41 
-1.654320 -2.081841 -5.353306 89 65 46 
-1.622095 -2.052821 -5.278683 83 48 30 
-1.810368 -2.304104 -5.924840 77 32 13 
-1.805465 -2.310995 -5.942558 78 24 3 
-1.806363 -2.325433 -5.979685 80 19 0 
-1.802472 -2.333836 -6.001293 81 16 0 
-1.797362 -2.340750 -6.019073 80 14 0 
-1.789781 -2.344508 -6.028736 79 14 0 
-1.781748 -2.347715 -6.036982 77 13 0 
-1.777984 -2.356619 -6.059876 76 10 0 
-1.771180 -2.361573 -6.072616 78 10 0 
-1.763184 -2.364990 -6.081401 78 10 0 
-1.756031 -2.369584 -6.093215 78 10 0 
-1.745167 -2.369197 -6.092221 78 11 0 
-1.735507 -2.370448 -6.095439 78 13 0 
-1.723868 -2.368996 -6.091705 78 15 1 
-1.714644 -2.370866 -6.096512 77 14 1 
-1.706341 -2.374040 -6.104675 77 13 0 
-1.696369 -2.374917 -6.106930 77 13 0 
-1.683545 -2.371787 -6.098881 78 13 0 
-1.672484 -2.371116 -6.097156 79 15 1 
-1.660741 -2.369465 -6.092909 80 16 2 
-1.650268 -2.369616 -6.093299 80 17 3 
-1.641498 -2.372229 -6.100018 80 17 2 
-1.629545 -2.370248 -6.094923 79 15 1 
-1.616158 -2.366140 -6.084359 78 14 0 
-1.607638 -2.369150 -6.092100 78 14 0 
-1.594678 -2.365614 -6.083009 78 14 0 
-1.586578 -2.369289 -6.092458 78 15 0 
-1.573247 -2.365149 -6.081813 77 14 0 
-1.558076 -2.358169 -6.063863 76 11 0 
-1.545517 -2.355074 -6.055904 77 11 0 
-1.537846 -2.359435 -6.067118 80 13 0 
-1.526974 -2.358912 -6.065773 81 13 0 
-1.516450 -2.358922 -6.065798 80 13 0 
-1.506039 -2.359110 -6.066282 79 14 0 
-1.491983 -2.353550 -6.051987 78 15 0 
-1.480244 -2.351593 -6.046954 79 15 0 
-1.465857 -2.345371 -6.030954 80 15 0 
-1.451494 -2.339098 -6.014825 81 15 0 
-1.440585 -2.338341 -6.012877 80 15 0 
-1.431134 -2.339957 -6.017032 79 14 0 
-1.420274 -2.339275 -6.015278 79 14 0 
-1.408861 -2.337666 -6.011141 79 14 0 
-1.397635 -2.336345 -6.007744 78 13 0 
-1.384020 -2.330982 -5.993953 79 13 0 
-1.371433 -2.327279 -5.984433 81 13 0 
-1.359239 -2.324195 -5.976502 81 13 0 
-1.349087 -2.324580 -5.977491 81 13 0 
-1.337497 -2.322475 -5.972078 80 13 0 
-1.327053 -2.322342 -5.971737 79 11 0 
-1.313722 -2.317117 -5.958301 79 11 0 
-1.301365 -2.313537 -5.949095 80 12 0 
-1.289953 -2.311595 -5.944101 82 14 1 
-1.277606 -2.307934 -5.934686 80 14 0 
-1.266876 -2.307156 -5.932686 79 14 0 
-1.253927 -2.302292 -5.920180 78 14 0 
-1.242672 -2.300485 -5.915532 79 15 0 
-1.230599 -2.297118 -5.906875 80 16 0 
-1.218516 -2.293676 -5.898025 82 16 1 
-1.206846 -2.290962 -5.891045 81 15 1 
-1.195670 -2.289145 -5.886374 81 14 2 
-1.185434 -2.289114 -5.886292 80 14 2 
-1.174207 -2.287150 -5.881244 78 14 1 
-1.162307 -2.283831 -5.872707 77 13 0 
-1.150894 -2.281419 -5.866506 77 14 0 
-1.140807 -2.281614 -5.867006 79 15 0 
-1.129752 -2.279860 -5.862497 80 16 1 
-1.118371 -2.277409 -5.856195 80 16 1 
-1.107231 -2.275409 -5.851053 80 16 2 
-1.095975 -2.273133 -5.845200 80 15 2 
-1.084005 -2.269319 -5.835391 80 16 1 
-1.072253 -2.265894 -5.826584 81 18 0 
-1.061937 -2.265466 -5.825484 83 18 0 
-1.051088 -2.263883 -5.821413 83 16 0 
-1.040435 -2.262694 -5.818356 82 14 0 
-1.028969 -2.259697 -5.810649 81 13 0 
-1.018277 -2.258357 -5.807202 82 13 0 
-1.007493 -2.256784 -5.803159 84 15 0 
-0.996439 -2.254568 -5.797460 85 16 1 
-0.985960 -2.253624 -5.795033 84 15 0 
-0.975577 -2.252878 -5.793115 83 14 0 
-0.964607 -2.250749 -5.787641 84 15 0 
-0.954002 -2.249437 -5.784266 84 15 0 
-0.943447 -2.248214 -5.781122 84 14 0 
-0.932876 -2.246927 -5.777812 84 13 0 
-0.922362 -2.245752 -5.774790 85 13 0 
-0.911487 -2.243661 -5.769413 86 13 0 
-0.900871 -2.242169 -5.765577 87 14 0 
-0.890106 -2.240268 -5.760688 89 16 0 
-0.879663 -2.239143 -5.757797 89 16 0 
-0.869085 -2.237645 -5.753943 89 16 0 
-0.858848 -2.237000 -5.752285 88 16 0 
-0.848950 -2.237232 -5.752882 87 15 0 
-0.838947 -2.237191 -5.752777 86 15 0 
-0.828721 -2.236549 -5.751126 86 15 0 
-0.818774 -2.236651 -5.751388 86 16 0 
-0.807876 -2.234125 -5.744894 84 16 0 
-0.797600 -2.233280 -5.742720 84 16 0 
-0.787467 -2.232819 -5.741534 85 18 0 
-0.777527 -2.232899 -5.741740 87 18 0 
-0.767425 -2.232509 -5.740738 87 19 0 
-0.757584 -2.232881 -5.741693 86 21 0 
-0.747596 -2.232819 -5.741534 86 22 0 
-0.737602 -2.232743 -5.741338 85 22 0 
-0.727388 -2.231985 -5.739390 85 22 0 
-0.717642 -2.232663 -5.741134 87 22 0 
-0.707338 -2.231602 -5.738404 88 22 0 
-0.697365 -2.231568 -5.738318 88 21 0 
-0.687772 -2.232766 -5.741399 88 21 0 
-0.677932 -2.233189 -5.742486 89 20 0 
-0.668135 -2.233765 -5.743966 89 19 0 
-0.657877 -2.232793 -5.741468 89 18 0 
-0.647799 -2.232415 -5.740497 90 19 0 
-0.637854 -2.232490 -5.740688 90 19 0 
-0.627858 -2.232383 -5.740414 90 19 0 
-0.617913 -2.232461 -5.740614 90 19 0 
-0.608034 -2.232782 -5.741438 90 20 0 
-0.598484 -2.234341 -5.745448 91 21 0 
-0.588642 -2.234844 -5.746743 91 21 0 
-0.578700 -2.234979 -5.747089 90 21 0 
-0.568787 -2.235233 -5.747743 90 20 0 
-0.558834 -2.235337 -5.748008 89 19 1 
-0.548924 -2.235617 -5.748730 89 21 2 
-0.538894 -2.235410 -5.748198 90 23 3 
-0.529125 -2.236301 -5.750489 90 23 2 
-0.519170 -2.236426 -5.750811 90 21 1 
-0.509209 -2.236527 -5.751070 90 21 1 
-0.499421 -2.237405 -5.753327 90 21 1 
-0.489816 -2.239159 -5.757838 90 20 2 
-0.479674 -2.238479 -5.756088 90 20 2 
-0.469652 -2.238342 -5.755736 91 19 2 
-0.459936 -2.239689 -5.759201 92 18 2 
-0.449987 -2.239935 -5.759834 92 19 2 
-0.440395 -2.242009 -5.765167 93 20 1 
-0.430739 -2.243851 -5.769902 92 19 1 
-0.420723 -2.243853 -5.769908 90 18 0 
-0.410721 -2.243940 -5.770131 90 19 0 
-0.400922 -2.245166 -5.773283 91 21 0 
-0.390894 -2.245137 -5.773211 91 22 0 
-0.380906 -2.245338 -5.773726 89 21 0 
-0.370947 -2.245733 -5.774743 88 20 0 
-0.360917 -2.245704 -5.774667 88 20 0 
-0.351016 -2.246505 -5.776728 89 21 0 
-0.341330 -2.248764 -5.782536 89 21 1 
-0.331535 -2.250422 -5.786800 88 22 2 
-0.321690 -2.251831 -5.790422 87 21 2 
-0.312074 -2.254989 -5.798543 87 21 2 
-0.303029 -2.262617 -5.818159 87 23 2 
-0.293395 -2.266222 -5.827427 87 26 5 
-0.287448 -2.299585 -5.913218 95 39 17 
-2.243657 -2.060501 -5.274883 115 116 98 
-2.226282 -2.052924 -5.255486 118 122 103 
-2.212241 -2.048372 -5.243832 120 125 106 
-2.202346 -2.047635 -5.241947 121 126 107 
-2.191428 -2.045939 -5.237604 125 130 109 
-2.184338 -2.047817 -5.242412 128 134 111 
-2.176042 -2.048575 -5.244353 128 132 108 
-2.166675 -2.048328 -5.243719 129 133 107 
-2.154792 -2.045689 -5.236963 135 137 110 
-2.144624 -2.044663 -5.234336 140 139 112 
-2.135272 -2.044409 -5.233688 139 137 111 
-2.126022 -2.044252 -5.233285 138 136 111 
-2.108013 -2.035635 -5.211226 145 143 118 
-2.098500 -2.035183 -5.210068 148 146 121 
-2.087400 -2.033182 -5.204947 147 145 120 
-2.076241 -2.031106 -5.199631 143 141 115 
-2.067030 -2.030925 -5.199168 139 137 111 
-2.058643 -2.031556 -5.200783 135 134 108 
-2.049943 -2.031882 -5.201619 128 127 102 
-2.041178 -2.032146 -5.202294 123 122 99 
-2.031093 -2.031093 -5.199598 115 115 92 
-2.021957 -2.030984 -5.199319 109 112 88 
-2.012924 -2.030977 -5.199303 108 111 89 
-2.003893 -2.030972 -5.199290 106 109 89 
-1.991491 -2.027537 -5.190494 89 92 74 
-1.982794 -2.027858 -5.191315 78 82 65 
-1.973784 -2.027860 -5.191321 78 80 64 
-1.965289 -2.028395 -5.192690 73 74 59 
-1.956310 -2.028432 -5.192787 67 66 54 
-1.946917 -2.028039 -5.191779 62 59 49 
-1.937635 -2.027758 -5.191060 57 53 41 
-1.928323 -2.027443 -5.190253 50 45 32 
-1.919269 -2.027397 -5.190137 46 39 26 
-1.910256 -2.027394 -5.190129 43 38 26 
-1.901243 -2.027392 -5.190124 44 40 28 
-1.892230 -2.027389 -5.190116 46 42 32 
-1.883069 -2.027227 -5.189702 56 52 40 
-1.873967 -2.027128 -5.189446 64 60 50 
-1.864935 -2.027103 -5.189384 66 62 54 
-1.855933 -2.027112 -5.189406 70 67 60 
-1.846909 -2.027096 -5.189364 79 76 68 
-1.837888 -2.027082 -5.189330 88 85 75 
-1.828860 -2.027062 -5.189278 99 95 85 
-1.819827 -2.027035 -5.189210 117 113 102 
-1.810832 -2.027051 -5.189250 128 123 113 
-1.801824 -2.027052 -5.189253 132 127 119 
-1.792828 -2.027066 -5.189290 140 134 126 
-1.783912 -2.027173 -5.189561 150 144 136 
-1.774971 -2.027251 -5.189763 158 153 143 
-1.766146 -2.027463 -5.190307 165 161 149 
-1.757597 -2.027997 -5.191671 172 167 154 
-1.748103 -2.027440 -5.190245 183 179 162 
-1.738839 -2.027144 -5.189489 187 182 162 
-1.729783 -2.027089 -5.189348 191 186 163 
-1.720770 -2.027085 -5.189336 193 189 165 
-1.711760 -2.027084 -5.189334 192 189 165 
-1.702746 -2.027078 -5.189321 195 193 167 
-1.693731 -2.027071 -5.189302 198 197 171 
-1.684721 -2.027071 -5.189301 198 197 171 
-1.675705 -2.027062 -5.189279 193 192 167 
-1.666694 -2.027061 -5.189276 191 190 165 
-1.657673 -2.027045 -5.189236 190 188 162 
-1.648662 -2.027044 -5.189232 189 184 159 
-1.639657 -2.027049 -5.189246 186 178 155 
-1.630631 -2.027027 -5.189190 173 163 140 
-1.621622 -2.027028 -5.189190 168 157 133 
-1.612613 -2.027028 -5.189190 164 148 123 
-1.603604 -2.027027 -5.189189 137 113 89 
-1.620468 -2.059917 -5.273387 92 58 36 
-1.810489 -2.314545 -5.925235 73 29 7 
-1.805238 -2.321020 -5.941812 76 23 1 
-1.805762 -2.335037 -5.977696 78 19 0 
-1.801843 -2.343438 -5.999200 80 16 0 
-1.796553 -2.350142 -6.016364 80 15 0 
-1.788637 -2.353470 -6.024882 78 14 0 
-1.780479 -2.356517 -6.032683 77 14 0 
-1.775662 -2.364047 -6.051960 77 12 0 
-1.769428 -2.369770 -6.066610 79 11 0 
-1.761638 -2.373465 -6.076069 79 10 0 
-1.753781 -2.377112 -6.085408 79 11 1 
-1.741658 -2.374989 -6.079971 80 12 2 
-1.731771 -2.375905 -6.082317 79 14 3 
-1.721384 -2.376144 -6.082929 79 15 3 
-1.712982 -2.379142 -6.090603 77 15 1 
-1.704621 -2.382235 -6.098521 76 13 0 
-1.694352 -2.382683 -6.099668 76 12 0 
-1.682359 -2.380697 -6.094584 78 13 0 
-1.670537 -2.378929 -6.090058 79 16 0 
-1.658916 -2.377428 -6.086215 79 16 1 
-1.647141 -2.375685 -6.081753 78 16 1 
-1.636814 -2.376019 -6.082610 77 15 0 
-1.627168 -2.377356 -6.086030 77 14 0 
-1.614576 -2.374377 -6.078405 77 13 0 
-1.605940 -2.377214 -6.085668 77 13 0 
-1.593291 -2.374109 -6.077720 77 14 0 
-1.585666 -2.378500 -6.088959 78 15 0 
-1.571825 -2.373561 -6.076317 77 13 0 
-1.556875 -2.366871 -6.059189 76 10 0 
-1.543674 -2.362766 -6.048681 76 9 0 
-1.533521 -2.363303 -6.050056 77 10 0 
-1.523023 -2.363311 -6.050076 78 10 0 
-1.514455 -2.366336 -6.057820 78 11 0 
-1.505127 -2.368206 -6.062608 79 13 0 
-1.491022 -2.362535 -6.048090 79 15 0 
-1.479208 -2.360437 -6.042720 80 15 0 
-1.464831 -2.354193 -6.026735 81 15 0 
-1.450527 -2.347976 -6.010818 80 15 0 
-1.439442 -2.346916 -6.008105 79 14 0 
-1.430476 -2.349322 -6.014265 79 14 0 
-1.419591 -2.348588 -6.012386 79 14 0 
-1.407880 -2.346466 -6.006954 79 13 0 
-1.396753 -2.345294 -6.003952 78 12 0 
-1.383191 -2.339985 -5.990362 79 12 0 
-1.370612 -2.336271 -5.980853 80 13 0 
-1.358690 -2.333628 -5.974087 81 13 0 
-1.348222 -2.333462 -5.973662 80 13 0 
-1.336457 -2.331029 -5.967434 79 12 0 
-1.326186 -2.331186 -5.967836 78 11 0 
-1.312903 -2.326010 -5.954585 78 11 0 
-1.300846 -2.322939 -5.946723 80 12 0 
-1.288914 -2.320045 -5.939315 81 13 0 
-1.277062 -2.317249 -5.932158 80 14 0 
-1.266029 -2.315907 -5.928722 79 15 0 
-1.253022 -2.310901 -5.915907 79 15 0 
-1.242188 -2.309855 -5.913227 79 15 0 
-1.229954 -2.306164 -5.903779 79 16 0 
-1.217499 -2.301995 -5.893106 80 15 0 
-1.206164 -2.299888 -5.887714 80 15 0 
-1.194687 -2.297474 -5.881534 80 15 0 
-1.184776 -2.298058 -5.883028 80 15 1 
-1.173614 -2.296201 -5.878274 78 14 0 
-1.161694 -2.292817 -5.869612 78 14 0 
-1.150201 -2.290223 -5.862971 79 14 0 
-1.140035 -2.290250 -5.863039 81 16 0 
-1.129221 -2.288961 -5.859739 81 16 0 
-1.117815 -2.286441 -5.853289 81 16 0 
-1.106471 -2.283999 -5.847038 80 15 0 
-1.095330 -2.281938 -5.841760 79 15 0 
-1.083478 -2.278342 -5.832554 79 15 0 
-1.071830 -2.275112 -5.824286 80 17 0 
-1.061497 -2.274637 -5.823071 82 19 0 
-1.050659 -2.273061 -5.819036 82 17 0 
-1.039871 -2.271562 -5.815199 80 15 0 
-1.028438 -2.268614 -5.807652 79 13 0 
-1.017517 -2.266745 -5.802867 79 14 0 
-1.007143 -2.266071 -5.801142 83 15 0 
-0.996123 -2.263915 -5.795623 84 16 1 
-0.985504 -2.262637 -5.792352 82 15 0 
-0.975009 -2.261620 -5.789747 81 16 0 
-0.964181 -2.259800 -5.785089 84 17 0 
-0.953720 -2.258811 -5.782555 84 16 0 
-0.943121 -2.257469 -5.779122 83 15 0 
-0.932614 -2.256325 -5.776192 84 14 0 
-0.922114 -2.255170 -5.773235 84 13 0 
-0.911192 -2.252948 -5.767548 85 14 0 
-0.900508 -2.251269 -5.763249 87 16 0 
-0.889622 -2.249044 -5.757554 90 18 2 
-0.879002 -2.247449 -5.753469 90 19 2 
-0.868543 -2.246232 -5.750352 89 19 1 
-0.858613 -2.246371 -5.750710 88 17 0 
-0.848568 -2.246209 -5.750295 86 17 0 
-0.838682 -2.246470 -5.750963 85 16 0 
-0.828381 -2.245610 -5.748762 84 16 0 
-0.818439 -2.245716 -5.749034 84 17 0 
-0.807735 -2.243709 -5.743895 84 16 0 
-0.797393 -2.242666 -5.741226 84 17 0 
-0.787261 -2.242199 -5.740029 86 18 0 
-0.777280 -2.242155 -5.739916 88 19 0 
-0.767191 -2.241791 -5.738984 88 20 0 
-0.757348 -2.242150 -5.739903 87 20 0 
-0.747401 -2.242203 -5.740039 87 22 0 
-0.737379 -2.242030 -5.739597 86 23 0 
-0.727275 -2.241600 -5.738496 85 22 0 
-0.717483 -2.242136 -5.739868 86 22 0 
-0.707173 -2.241042 -5.737069 87 22 0 
-0.697264 -2.241206 -5.737487 88 21 0 
-0.687675 -2.242417 -5.740588 88 21 0 
-0.677765 -2.242606 -5.741072 88 19 0 
-0.667913 -2.242991 -5.742056 87 18 0 
-0.657716 -2.242214 -5.740067 88 17 0 
-0.647698 -2.242032 -5.739603 90 19 0 
-0.637704 -2.241928 -5.739335 91 19 0 
-0.627764 -2.242016 -5.739561 90 19 0 
-0.617778 -2.241937 -5.739360 90 18 0 
-0.607898 -2.242247 -5.740152 90 19 0 
-0.598201 -2.243253 -5.742729 89 19 0 
-0.588435 -2.244032 -5.744723 89 20 0 
-0.578606 -2.244591 -5.746153 90 21 0 
-0.568656 -2.244695 -5.746418 90 21 0 
-0.558677 -2.244685 -5.746393 90 20 1 
-0.548789 -2.245047 -5.747321 89 22 2 
-0.538805 -2.245021 -5.747254 90 23 3 
-0.528948 -2.245533 -5.748564 91 22 3 
-0.519042 -2.245855 -5.749390 91 21 1 
-0.509069 -2.245893 -5.749486 91 20 1 
-0.499207 -2.246433 -5.750869 91 19 0 
-0.489482 -2.247622 -5.753913 92 18 0 
-0.479437 -2.247360 -5.753242 92 18 1 
-0.469475 -2.247489 -5.753572 93 18 2 
-0.459807 -2.249056 -5.757583 93 18 3 
-0.449858 -2.249292 -5.758187 93 18 3 
-0.440262 -2.251338 -5.763427 93 18 2 
-0.430645 -2.253374 -5.768639 93 18 1 
-0.420522 -2.252798 -5.767164 93 18 0 
-0.410531 -2.252915 -5.767462 92 17 0 
-0.400694 -2.253901 -5.769986 92 18 0 
-0.390715 -2.254123 -5.770555 92 20 0 
-0.380720 -2.254264 -5.770916 91 22 0 
-0.370778 -2.254732 -5.772113 90 21 0 
-0.360756 -2.254725 -5.772094 90 21 0 
-0.350954 -2.256131 -5.775695 89 21 0 
-0.341244 -2.258234 -5.781079 88 21 1 
-0.331434 -2.259776 -5.785026 89 21 3 
-0.321563 -2.260992 -5.788138 89 22 3 
-0.311979 -2.264366 -5.796777 89 22 3 
-0.303013 -2.272599 -5.817854 88 23 2 
-0.293383 -2.276251 -5.827201 89 28 7 
-2.249669 -2.041868 -5.204053 73 72 51 
-2.237430 -2.038948 -5.196612 64 63 41 
-2.228248 -2.038802 -5.196239 59 58 36 
-2.219179 -2.038758 -5.196126 55 55 34 
-2.210135 -2.038737 -5.196073 55 56 37 
-2.200991 -2.038623 -5.195781 56 59 42 
-2.191242 -2.037945 -5.194054 59 64 47 
-2.181827 -2.037574 -5.193110 59 64 47 
-2.173063 -2.037810 -5.193711 64 69 52 
-2.163795 -2.037574 -5.193109 76 80 62 
-2.154681 -2.037480 -5.192871 84 88 68 
-2.145655 -2.037470 -5.192845 89 92 71 
-2.136445 -2.037285 -5.192372 98 100 79 
-2.126547 -2.036439 -5.190217 111 110 90 
-2.117538 -2.036441 -5.190221 114 112 92 
-2.108531 -2.036444 -5.190229 114 113 94 
-2.099569 -2.036492 -5.190352 120 118 99 
-2.091202 -2.037119 -5.191949 129 127 106 
-2.083984 -2.038876 -5.196427 137 134 111 
-2.076212 -2.040104 -5.199556 141 138 113 
-2.066963 -2.039885 -5.198998 143 141 114 
-2.057149 -2.039104 -5.197008 145 142 116 
-2.046833 -2.037816 -5.193726 141 139 113 
-2.037462 -2.037462 -5.192824 144 142 117 
-2.027099 -2.036108 -5.189373 154 153 129 
-2.018075 -2.036093 -5.189336 158 159 134 
-2.009065 -2.036093 -5.189333 158 160 136 
-2.000055 -2.036092 -5.189331 156 158 136 
-1.991042 -2.036088 -5.189322 152 155 133 
-1.982019 -2.036074 -5.189286 152 155 133 
-1.973004 -2.036068 -5.189271 151 152 132 
-1.963977 -2.036050 -5.189224 141 141 121 
-1.954967 -2.036048 -5.189220 136 135 115 
-1.945958 -2.036048 -5.189220 137 135 115 
-1.936949 -2.036048 -5.189220 136 133 112 
-1.927939 -2.036048 -5.189219 130 126 104 
-1.918927 -2.036044 -5.189210 120 115 93 
-1.909917 -2.036044 -5.189209 112 108 85 
-1.900908 -2.036044 -5.189209 103 100 77 
-1.891899 -2.036044 -5.189209 96 94 73 
-1.882890 -2.036044 -5.189209 91 89 68 
-1.873913 -2.036078 -5.189297 79 75 57 
-1.864932 -2.036109 -5.189376 73 68 51 
-1.855909 -2.036094 -5.189338 65 61 45 
-1.846848 -2.036037 -5.189193 53 49 35 
-1.837839 -2.036037 -5.189192 48 47 34 
-1.828830 -2.036037 -5.189192 50 49 36 
-1.819821 -2.036037 -5.189192 54 54 40 
-1.810812 -2.036037 -5.189192 52 53 38 
-1.801803 -2.036037 -5.189192 47 46 35 
-1.792794 -2.036037 -5.189191 52 49 39 
-1.783784 -2.036036 -5.189190 60 56 46 
-1.774775 -2.036036 -5.189189 69 64 54 
-1.765766 -2.036036 -5.189190 78 71 61 
-1.756757 -2.036036 -5.189190 79 72 63 
-1.747748 -2.036036 -5.189189 92 86 75 
-1.738739 -2.036036 -5.189189 100 93 81 
-1.729730 -2.036036 -5.189189 110 103 89 
-1.720721 -2.036036 -5.189189 119 115 99 
-1.711712 -2.036036 -5.189190 123 119 104 
-1.702703 -2.036036 -5.189189 131 129 112 
-1.693694 -2.036036 -5.189189 148 146 129 
-1.684685 -2.036036 -5.189189 159 155 138 
-1.675676 -2.036036 -5.189190 166 161 144 
-1.666667 -2.036037 -5.189191 177 171 152 
-1.657670 -2.036052 -5.189229 186 179 156 
-1.648662 -2.036052 -5.189230 195 186 163 
-1.639647 -2.036046 -5.189214 197 186 164 
-1.630631 -2.036036 -5.189190 197 185 163 
-1.621622 -2.036037 -5.189191 201 187 164 
-1.612613 -2.036036 -5.189190 196 178 154 
-1.603604 -2.036036 -5.189189 159 134 109 
-1.620502 -2.069116 -5.273499 94 61 39 
-1.810254 -2.324531 -5.924468 70 27 4 
-1.805021 -2.331055 -5.941096 75 22 0 
-1.804857 -2.344239 -5.974698 76 17 0 
-1.799254 -2.350471 -5.990581 76 14 0 
-1.793721 -2.356866 -6.006879 76 14 0 
-1.786931 -2.361675 -6.019137 76 14 0 
-1.779632 -2.365864 -6.029812 77 14 0 
-1.773372 -2.371491 -6.044154 78 14 0 
-1.767970 -2.378341 -6.061612 79 12 0 
-1.759159 -2.380658 -6.067517 79 12 1 
-1.751845 -2.385042 -6.078690 78 12 1 
-1.739835 -2.383047 -6.073607 79 13 2 
-1.729829 -2.383789 -6.075499 80 15 4 
-1.719392 -2.383942 -6.075888 80 16 4 
-1.711057 -2.387030 -6.083758 78 14 1 
-1.702634 -2.390032 -6.091410 77 12 0 
-1.692679 -2.390909 -6.093645 76 11 0 
-1.680620 -2.388805 -6.088283 77 13 0 
-1.668622 -2.386763 -6.083077 78 15 0 
-1.657119 -2.385407 -6.079622 78 16 0 
-1.644672 -2.382666 -6.072635 76 15 0 
-1.634651 -2.383427 -6.074575 75 14 0 
-1.625627 -2.385660 -6.080266 76 15 0 
-1.613018 -2.382627 -6.072537 76 14 0 
-1.603626 -2.384339 -6.076899 76 15 0 
-1.591679 -2.382249 -6.071572 76 15 0 
-1.582909 -2.384916 -6.078369 76 13 0 
-1.570427 -2.381990 -6.070913 77 12 0 
-1.554931 -2.374422 -6.051625 78 11 0 
-1.542358 -2.371244 -6.043524 77 10 0 
-1.532144 -2.371675 -6.044624 76 9 0 
-1.521280 -2.371099 -6.043154 76 9 0 
-1.512920 -2.374444 -6.051681 76 10 0 
-1.503681 -2.376447 -6.056786 78 11 0 
-1.490085 -2.371544 -6.044289 79 14 0 
-1.478194 -2.369303 -6.038578 79 15 0 
-1.463323 -2.362221 -6.020528 79 15 0 
-1.449393 -2.356567 -6.006117 79 14 0 
-1.438480 -2.355772 -6.004092 79 13 0 
-1.429508 -2.358166 -6.010192 79 14 1 
-1.418406 -2.357058 -6.007368 80 14 1 
-1.406913 -2.355276 -6.002828 78 13 0 
-1.394954 -2.352683 -5.996220 76 10 0 
-1.381490 -2.347495 -5.982996 77 10 0 
-1.369653 -2.345011 -5.976666 79 12 0 
-1.357876 -2.342596 -5.970510 80 13 0 
-1.347649 -2.342836 -5.971123 80 13 0 
-1.335873 -2.340366 -5.964826 79 12 0 
-1.325614 -2.340537 -5.965263 78 11 0 
-1.312091 -2.334903 -5.950902 78 10 0 
-1.299941 -2.331640 -5.942586 79 11 0 
-1.288399 -2.329426 -5.936944 81 13 0 
-1.276257 -2.326081 -5.928418 80 13 0 
-1.265192 -2.324661 -5.924800 79 14 0 
-1.252509 -2.320223 -5.913487 79 15 0 
-1.241339 -2.318535 -5.909185 80 16 0 
-1.229309 -2.315198 -5.900682 80 16 0 
-1.216825 -2.310945 -5.889841 79 16 0 
-1.205582 -2.308996 -5.884874 79 15 0 
-1.194031 -2.306418 -5.878305 79 14 0 
-1.183779 -2.306328 -5.878075 78 14 0 
-1.173217 -2.305626 -5.876286 78 14 0 
-1.161344 -2.302314 -5.867846 78 14 0 
-1.149732 -2.299465 -5.860583 79 15 0 
-1.139482 -2.299313 -5.860196 80 15 0 
-1.128691 -2.298056 -5.856993 80 15 0 
-1.117260 -2.295462 -5.850380 80 15 0 
-1.106007 -2.293188 -5.844585 80 14 0 
-1.094935 -2.291253 -5.839653 79 14 0 
-1.083079 -2.287626 -5.830409 79 14 0 
-1.071232 -2.283948 -5.821036 79 15 0 
-1.060882 -2.283421 -5.819693 81 17 0 
-1.050414 -2.282631 -5.817678 82 17 0 
-1.039640 -2.281151 -5.813908 80 15 0 
-1.028199 -2.278167 -5.806301 79 13 0 
-1.017194 -2.276098 -5.801029 80 14 0 
-1.006909 -2.275615 -5.799799 83 15 0 
-0.995701 -2.273015 -5.793169 83 15 0 
-0.985201 -2.271994 -5.790569 81 15 0 
-0.974739 -2.271042 -5.788142 82 16 0 
-0.963900 -2.269180 -5.783398 84 18 0 
-0.953441 -2.268186 -5.780862 84 17 0 
-0.942937 -2.267061 -5.777997 83 15 0 
-0.932190 -2.265321 -5.773562 82 13 0 
-0.921823 -2.264479 -5.771415 83 12 0 
-0.910898 -2.262231 -5.765686 86 15 0 
-0.899966 -2.259916 -5.759785 89 18 1 
-0.889266 -2.258137 -5.755252 91 20 2 
-0.878640 -2.256507 -5.751096 91 21 2 
-0.868236 -2.255417 -5.748319 90 20 2 
-0.858298 -2.255528 -5.748602 87 18 1 
-0.848222 -2.255272 -5.747951 84 17 0 
-0.838285 -2.255386 -5.748239 83 17 1 
-0.827796 -2.253998 -5.744703 84 18 3 
-0.817832 -2.254026 -5.744775 85 19 3 
-0.807361 -2.252636 -5.741231 85 18 1 
-0.797051 -2.251669 -5.738767 86 18 0 
-0.786921 -2.251192 -5.737551 88 19 0 
-0.777071 -2.251512 -5.738367 89 19 0 
-0.766955 -2.251064 -5.737225 89 19 0 
-0.757148 -2.251520 -5.738387 88 20 0 
-0.747206 -2.251581 -5.738542 87 21 0 
-0.737252 -2.251607 -5.738609 86 23 0 
-0.727075 -2.250943 -5.736918 86 23 0 
-0.717224 -2.251287 -5.737792 86 23 2 
-0.706805 -2.249830 -5.734080 87 22 3 
-0.696904 -2.250004 -5.734523 87 21 3 
-0.687437 -2.251606 -5.738607 88 20 2 
-0.677534 -2.251804 -5.739111 88 20 2 
-0.667672 -2.252146 -5.739983 88 19 2 
-0.657413 -2.251140 -5.737419 89 19 2 
-0.647519 -2.251375 -5.738019 90 20 1 
-0.637602 -2.251533 -5.738420 91 19 0 
-0.627624 -2.251477 -5.738276 91 19 0 
-0.617642 -2.251404 -5.738091 90 19 0 
-0.607806 -2.251870 -5.739280 90 19 0 
-0.598039 -2.252614 -5.741175 90 20 0 
-0.588350 -2.253681 -5.743895 89 20 0 
-0.578511 -2.254198 -5.745214 90 21 0 
-0.568568 -2.254322 -5.745527 90 21 0 
-0.558498 -2.253937 -5.744548 89 21 0 
-0.548629 -2.254368 -5.745646 89 21 1 
-0.538587 -2.254085 -5.744925 90 22 1 
-0.528790 -2.254842 -5.746853 91 21 2 
-0.518829 -2.254912 -5.747033 90 19 1 
-0.508889 -2.255078 -5.747455 91 18 1 
-0.499009 -2.255521 -5.748584 92 17 0 
-0.489276 -2.256662 -5.751492 93 16 0 
-0.479260 -2.256514 -5.751115 94 17 1 
-0.469366 -2.256951 -5.752229 93 18 3 
-0.459626 -2.258161 -5.755313 93 19 5 
-0.449656 -2.258275 -5.755603 93 20 5 
-0.440153 -2.260784 -5.761999 92 19 3 
-0.430551 -2.262898 -5.767386 92 19 1 
-0.420432 -2.262327 -5.765931 92 18 0 
-0.410440 -2.262424 -5.766177 91 17 0 
-0.400536 -2.263027 -5.767715 91 16 0 
-0.390605 -2.263505 -5.768934 92 19 0 
-0.380534 -2.263178 -5.768100 92 20 0 
-0.370609 -2.263718 -5.769475 92 20 0 
-0.360594 -2.263731 -5.769510 92 20 0 
-0.350759 -2.264901 -5.772492 91 19 0 
-0.341054 -2.267009 -5.777863 90 19 0 
-0.331222 -2.268367 -5.781324 89 18 1 
-0.321271 -2.268978 -5.782883 88 18 1 
-0.311738 -2.272673 -5.792299 87 18 1 
-0.302983 -2.282474 -5.817278 86 20 1 
-0.293386 -2.286387 -5.827251 90 29 7 
-2.281298 -2.071419 -5.256111 114 114 87 
-2.271877 -2.071149 -5.255425 116 117 89 
-2.236243 -2.046884 -5.193855 104 105 76 
-2.226267 -2.046002 -5.191618 95 95 67 
-2.217166 -2.045922 -5.191414 87 88 62 
-2.208014 -2.045793 -5.191087 76 78 56 
-2.199044 -2.045832 -5.191186 71 75 54 
-2.190496 -2.046266 -5.192286 69 74 55 
-2.181811 -2.046575 -5.193070 62 68 49 
-2.172092 -2.045912 -5.191390 55 60 41 
-2.162567 -2.045428 -5.190162 53 58 37 
-2.153547 -2.045419 -5.190138 56 59 38 
-2.144461 -2.045347 -5.189955 51 55 32 
-2.135447 -2.045343 -5.189946 52 56 33 
-2.126421 -2.045328 -5.189909 55 58 37 
-2.117385 -2.045303 -5.189845 59 61 42 
-2.108363 -2.045292 -5.189817 62 63 46 
-2.099347 -2.045287 -5.189803 64 64 47 
-2.090224 -2.045176 -5.189521 70 70 51 
-2.081210 -2.045172 -5.189512 72 71 50 
-2.072226 -2.045197 -5.189574 73 73 49 
-2.063249 -2.045229 -5.189657 81 80 54 
-2.054104 -2.045095 -5.189315 92 90 66 
-2.045070 -2.045070 -5.189252 100 99 76 
-2.036060 -2.045069 -5.189250 105 103 81 
-2.027038 -2.045057 -5.189219 113 112 91 
-2.018027 -2.045054 -5.189213 120 119 98 
-2.009017 -2.045053 -5.189209 126 126 105 
-2.000008 -2.045053 -5.189209 131 131 111 
-1.991000 -2.045054 -5.189212 139 139 120 
-1.982008 -2.045072 -5.189259 146 144 126 
-1.973004 -2.045077 -5.189270 154 151 134 
-1.963968 -2.045049 -5.189200 158 155 137 
-1.954958 -2.045048 -5.189197 163 161 141 
-1.945949 -2.045048 -5.189198 163 161 142 
-1.936940 -2.045048 -5.189198 165 163 142 
-1.927931 -2.045048 -5.189197 168 167 145 
-1.918922 -2.045048 -5.189196 167 165 143 
-1.909913 -2.045048 -5.189197 166 164 141 
-1.900904 -2.045048 -5.189197 167 165 140 
-1.891895 -2.045048 -5.189197 167 166 138 
-1.882885 -2.045048 -5.189196 165 163 135 
-1.873875 -2.045046 -5.189191 158 154 127 
-1.864866 -2.045046 -5.189192 157 152 127 
-1.855857 -2.045046 -5.189192 154 150 126 
-1.846848 -2.045046 -5.189191 146 143 119 
-1.837838 -2.045045 -5.189190 138 137 113 
-1.828829 -2.045045 -5.189190 130 130 107 
-1.819820 -2.045045 -5.189190 123 125 101 
-1.810811 -2.045045 -5.189190 118 121 97 
-1.801802 -2.045045 -5.189189 107 108 87 
-1.792793 -2.045045 -5.189189 94 94 74 
-1.783784 -2.045045 -5.189189 84 82 62 
-1.774775 -2.045045 -5.189190 82 79 59 
-1.765766 -2.045045 -5.189190 81 76 59 
-1.756757 -2.045045 -5.189190 71 67 52 
-1.747748 -2.045045 -5.189190 61 59 43 
-1.738739 -2.045046 -5.189190 52 51 36 
-1.729730 -2.045046 -5.189191 49 47 32 
-1.720721 -2.045046 -5.189190 46 45 32 
-1.711712 -2.045045 -5.189190 45 44 31 
-1.702703 -2.045045 -5.189190 50 48 34 
-1.693694 -2.045046 -5.189190 54 51 36 
-1.684685 -2.045045 -5.189190 54 50 36 
-1.675676 -2.045045 -5.189190 59 55 44 
-1.666667 -2.045045 -5.189190 75 71 57 
-1.657658 -2.045046 -5.189190 100 94 74 
-1.648650 -2.045047 -5.189193 130 124 103 
-1.639640 -2.045046 -5.189191 149 143 123 
-1.630631 -2.045045 -5.189190 164 156 137 
-1.621622 -2.045045 -5.189190 174 161 141 
-1.612613 -2.045045 -5.189189 172 151 130 
-1.603604 -2.045046 -5.189190 141 109 88 
-1.623076 -2.081573 -5.281876 92 52 30 
-1.809845 -2.334288 -5.923128 74 26 4 
-1.804496 -2.340689 -5.939370 76 19 0 
-1.803880 -2.353338 -5.971466 74 15 0 
-1.797670 -2.358792 -5.985305 73 13 0 
-1.790436 -2.362960 -5.995880 72 12 0 
-1.785583 -2.370336 -6.014597 75 13 0 
-1.778789 -2.375207 -6.026957 77 14 0 
-1.771114 -2.378952 -6.036459 76 13 0 
-1.764794 -2.384573 -6.050724 76 12 0 
-1.756733 -2.387895 -6.059152 77 12 0 
-1.748048 -2.390403 -6.065515 75 12 0 
-1.735312 -2.387368 -6.057816 76 12 0 
-1.726672 -2.389967 -6.064410 78 14 2 
-1.717670 -2.392092 -6.069802 80 15 3 
-1.709167 -2.394944 -6.077039 79 13 1 
-1.700984 -2.398281 -6.085507 78 12 0 
-1.689995 -2.397680 -6.083981 78 12 0 
-1.678910 -2.396935 -6.082089 78 13 0 
-1.667551 -2.395785 -6.079172 78 15 0 
-1.655619 -2.393793 -6.074117 78 15 0 
-1.643306 -2.391221 -6.067591 76 14 0 
-1.633351 -2.392069 -6.069743 76 14 0 
-1.624113 -2.393985 -6.074604 75 14 0 
-1.612144 -2.391874 -6.069249 76 14 0 
-1.602238 -2.392816 -6.071639 77 15 0 
-1.590333 -2.390766 -6.066436 76 14 0 
-1.580211 -2.391385 -6.068008 74 11 0 
-1.569052 -2.390435 -6.065598 77 11 0 
-1.553005 -2.381974 -6.044127 79 13 0 
-1.539725 -2.377671 -6.033209 78 13 0 
-1.530986 -2.380369 -6.040055 76 10 0 
-1.519553 -2.378887 -6.036294 74 10 0 
-1.511549 -2.382790 -6.046197 74 10 0 
-1.501775 -2.383937 -6.049108 75 11 0 
-1.487911 -2.378562 -6.035470 76 13 0 
-1.475835 -2.375989 -6.028942 76 14 0 
-1.461828 -2.370250 -6.014378 77 15 0 
-1.448432 -2.365425 -6.002136 78 14 0 
-1.437349 -2.364335 -5.999369 78 14 0 
-1.428549 -2.367012 -6.006163 79 14 0 
-1.417235 -2.365532 -6.002408 79 14 0 
-1.406273 -2.364623 -6.000100 78 13 0 
-1.394106 -2.361657 -5.992575 77 10 0 
-1.380538 -2.356257 -5.978872 78 11 0 
-1.368709 -2.353765 -5.972548 80 13 0 
-1.356932 -2.351324 -5.966356 81 14 0 
-1.346658 -2.351473 -5.966732 81 14 0 
-1.334093 -2.347590 -5.956882 81 14 0 
-1.323881 -2.347821 -5.957466 80 13 0 
-1.311148 -2.343548 -5.946623 79 11 0 
-1.299434 -2.341044 -5.940269 79 11 0 
-1.287893 -2.338814 -5.934612 81 13 0 
-1.275724 -2.335398 -5.925945 80 13 0 
-1.264367 -2.333426 -5.920938 79 13 0 
